# .PCD v.6 - Point Cloud Data file format
FIELDS x y z 
SIZE 4 4 4 
TYPE F F F 
COUNT 1 1 1 
WIDTH 1183
HEIGHT 1
POINTS 1183
DATA ascii
1.721888e-02 -7.823418e-03 5.585568e-02 
1.367639e-02 3.793774e-03 5.901239e-02 
1.759198e-02 -6.405124e-03 5.713654e-02 
1.064761e-02 6.993610e-03 6.258224e-02 
1.746830e-02 -2.280294e-03 5.852569e-02 
8.577500e-03 1.052144e-02 6.543963e-02 
1.542167e-02 1.212880e-03 6.136157e-02 
1.837538e-02 -9.306937e-03 6.020325e-02 
1.092774e-02 6.812727e-03 6.577820e-02 
1.583005e-02 -3.109661e-03 6.315386e-02 
1.030315e-02 1.368348e-02 6.728447e-02 
1.520658e-02 3.741112e-03 6.465591e-02 
1.430540e-02 -8.092824e-03 6.641177e-02 
1.289882e-02 8.615455e-03 6.756642e-02 
1.875105e-02 -9.840076e-04 6.421200e-02 
1.155442e-02 1.381456e-02 6.975176e-02 
1.645514e-02 3.872034e-03 6.711593e-02 
1.555764e-02 -7.961517e-03 6.887897e-02 
1.414983e-02 8.746634e-03 7.003123e-02 
1.999718e-02 -8.533594e-04 6.666742e-02 
1.377547e-02 1.425099e-02 7.148167e-02 
1.673987e-02 3.688385e-03 7.031017e-02 
1.680891e-02 -7.830429e-03 7.134626e-02 
1.418320e-02 9.928456e-03 7.328893e-02 
1.907528e-02 -3.098085e-06 7.064301e-02 
1.818545e-02 -1.184784e-02 7.241623e-02 
1.459213e-02 5.597685e-03 7.509962e-02 
1.852530e-02 -4.653678e-03 7.318357e-02 
1.686672e-02 1.339369e-02 7.438497e-02 
1.693629e-02 1.893656e-03 7.542887e-02 
1.506781e-02 -1.030957e-02 7.796672e-02 
1.437499e-02 8.142323e-03 7.842318e-02 
2.023765e-02 -1.483220e-03 7.501729e-02 
1.953952e-02 1.684550e-02 7.547681e-02 
1.672227e-02 4.432413e-03 7.874933e-02 
2.161120e-02 -5.492965e-03 7.608520e-02 
2.020117e-02 1.118089e-02 7.722832e-02 
1.931395e-02 -6.316431e-04 7.902061e-02 
2.419222e-02 -1.053252e-02 7.635807e-02 
1.603992e-02 3.932942e-03 8.271674e-02 
2.286100e-02 -5.361927e-03 7.854771e-02 
1.397178e-02 7.468402e-03 8.562438e-02 
1.985319e-02 -2.182363e-03 8.218089e-02 
2.564185e-02 1.395220e-02 7.800710e-02 
1.707996e-02 -3.504037e-04 8.578023e-02 
2.481510e-02 1.642020e-02 8.008136e-02 
1.526364e-02 1.811285e-03 8.864182e-02 
1.630465e-02 -9.470086e-03 8.896144e-02 
1.758314e-02 3.880142e-03 8.842129e-02 
1.862474e-02 -7.377278e-03 8.874020e-02 
1.381971e-02 5.419288e-03 9.281244e-02 
1.971869e-02 -4.251610e-03 8.933119e-02 
2.597971e-02 1.496013e-02 8.445207e-02 
1.740397e-02 6.403431e-04 9.230923e-02 
2.135158e-02 -9.650877e-03 9.035055e-02 
1.605484e-02 5.867027e-03 9.453353e-02 
2.097485e-02 -4.119996e-03 9.180795e-02 
2.411395e-02 1.553794e-02 8.921420e-02 
2.034779e-02 2.777337e-03 9.332019e-02 
2.331992e-02 -7.825313e-03 9.212196e-02 
2.068599e-02 9.984971e-03 9.407028e-02 
2.269323e-02 -9.346977e-04 9.363265e-02 
2.470047e-02 -1.185437e-02 9.319492e-02 
2.135360e-02 4.275401e-03 9.585159e-02 
2.336224e-02 -6.654957e-03 9.541354e-02 
1.363441e-02 1.617745e-02 1.022574e-01 
2.198217e-02 4.341314e-03 9.708997e-02 
2.399082e-02 -6.589048e-03 9.665202e-02 
1.354087e-02 1.456173e-02 1.042242e-01 
2.139362e-02 5.458525e-03 9.915011e-02 
2.436807e-02 -5.156895e-03 9.794513e-02 
2.637672e-02 -1.608727e-02 9.750708e-02 
2.152006e-02 8.259710e-03 1.004993e-01 
2.545512e-02 -2.036457e-03 9.852665e-02 
2.650361e-02 -1.328865e-02 9.885493e-02 
1.945935e-02 1.181063e-02 1.034470e-01 
2.436957e-02 1.806360e-03 1.006957e-01 
2.637821e-02 -9.124000e-03 1.002576e-01 
1.543902e-02 1.476071e-02 1.079648e-01 
2.424417e-02 5.970995e-03 1.020983e-01 
2.625281e-02 -4.959375e-03 1.016603e-01 
2.826244e-02 -1.588952e-02 1.012222e-01 
2.071920e-02 1.194263e-02 1.059311e-01 
2.562574e-02 1.937962e-03 1.031725e-01 
2.667529e-02 -9.321295e-03 1.035056e-01 
2.256834e-02 1.094888e-02 1.063419e-01 
2.650563e-02 6.376410e-04 1.043561e-01 
2.563099e-02 -1.128581e-02 1.062395e-01 
1.363979e-02 1.817260e-02 1.142314e-01 
2.345006e-02 9.646053e-03 1.075278e-01 
2.834340e-02 -3.423848e-04 1.047673e-01 
2.361612e-02 -1.359258e-02 1.097650e-01 
1.329236e-02 1.793355e-02 1.162730e-01 
2.407889e-02 9.711876e-03 1.087687e-01 
2.801313e-02 -5.969989e-04 1.067781e-01 
2.521537e-02 -1.319147e-02 1.102284e-01 
1.392720e-02 1.800007e-02 1.175247e-01 
2.470869e-02 9.777919e-03 1.100095e-01 
2.959931e-02 -2.106819e-04 1.072416e-01 
2.681161e-02 -1.279113e-02 1.106908e-01 
1.579730e-02 1.699259e-02 1.179275e-01 
2.655160e-02 8.787107e-03 1.104161e-01 
3.238491e-02 -8.686509e-04 1.068767e-01 
2.961626e-02 -1.342787e-02 1.103176e-01 
1.421531e-02 1.782722e-02 1.208246e-01 
2.596829e-02 9.910011e-03 1.124910e-01 
3.085426e-02 -7.920733e-05 1.097161e-01 
2.614419e-02 -1.332759e-02 1.147475e-01 
2.332061e-02 -2.605835e-02 1.182570e-01 
2.634617e-02 1.134492e-02 1.137867e-01 
3.027609e-02 1.032908e-03 1.117864e-01 
2.361722e-02 -1.289073e-02 1.184188e-01 
2.467406e-02 -2.426354e-02 1.187698e-01 
2.163831e-02 1.260628e-02 1.190760e-01 
2.752415e-02 2.879332e-03 1.154826e-01 
2.761562e-02 -8.741698e-03 1.166154e-01 
2.674025e-02 -2.075070e-02 1.185439e-01 
2.298836e-02 1.435651e-02 1.195859e-01 
2.886342e-02 4.632234e-03 1.159939e-01 
2.991765e-02 -6.646396e-03 1.163401e-01 
2.712002e-02 -1.930747e-02 1.198472e-01 
2.433601e-02 1.610337e-02 1.200947e-01 
3.019932e-02 6.381564e-03 1.165044e-01 
3.029536e-02 -5.210214e-03 1.176371e-01 
2.556286e-02 -1.854552e-02 1.227423e-01 
1.764806e-02 1.677805e-02 1.270339e-01 
3.032576e-02 9.182751e-03 1.178536e-01 
3.329108e-02 -1.436364e-03 1.166304e-01 
2.859311e-02 -1.470690e-02 1.217140e-01 
2.383043e-02 -2.815975e-02 1.268672e-01 
2.777780e-02 1.547585e-02 1.209448e-01 
2.979358e-02 4.513958e-03 1.205053e-01 
2.264411e-02 -1.252064e-02 1.279276e-01 
2.759333e-02 -2.255127e-02 1.250774e-01 
1.793974e-02 1.660377e-02 1.303463e-01 
3.062686e-02 9.003011e-03 1.211216e-01 
2.834127e-02 -6.320630e-03 1.245384e-01 
2.940026e-02 -1.766494e-02 1.248946e-01 
2.658656e-02 -3.044205e-02 1.284608e-01 
1.460610e-02 2.129529e-02 1.342557e-01 
2.832896e-02 1.393025e-02 1.241673e-01 
3.085023e-02 2.143318e-04 1.236176e-01 
3.049124e-02 -1.450790e-02 1.254545e-01 
2.768643e-02 -2.725686e-02 1.290198e-01 
1.495573e-02 2.859812e-02 1.349774e-01 
2.091348e-02 1.873237e-02 1.312935e-01 
2.834285e-02 6.901391e-04 1.273077e-01 
3.183257e-02 -1.273131e-02 1.259581e-01 
3.000419e-02 -2.511097e-02 1.287183e-01 
1.632268e-02 3.034633e-02 1.354757e-01 
1.835920e-02 1.926586e-02 1.350316e-01 
3.145430e-02 -7.167957e-03 1.274240e-01 
3.538916e-02 -1.748417e-02 1.253894e-01 
1.674108e-02 2.595908e-02 1.373796e-01 
2.946547e-02 1.824348e-02 1.280618e-01 
3.571470e-02 -1.022874e-02 1.261113e-01 
3.677678e-02 -2.153275e-02 1.264677e-01 
1.610404e-02 3.295786e-02 1.389140e-01 
1.814300e-02 2.186663e-02 1.384694e-01 
3.024099e-02 8.891313e-04 1.310482e-01 
3.735253e-02 -1.564371e-02 1.271337e-01 
3.555009e-02 -2.799872e-02 1.298905e-01 
1.921462e-02 3.084096e-02 1.384259e-01 
2.514458e-02 2.098583e-02 1.347356e-01 
3.672332e-02 -8.726336e-03 1.286503e-01 
3.968818e-02 -1.934867e-02 1.274143e-01 
2.108312e-02 2.981892e-02 1.388090e-01 
2.989302e-02 2.088400e-02 1.327039e-01 
3.950576e-02 -9.370372e-03 1.282425e-01 
4.056990e-02 -2.065152e-02 1.286001e-01 
3.205911e-02 -3.550975e-02 1.370181e-01 
2.095623e-02 3.403250e-02 1.402281e-01 
2.493555e-02 2.357543e-02 1.381565e-01 
4.114095e-02 -1.477472e-02 1.292628e-01 
3.935717e-02 -2.710223e-02 1.320225e-01 
2.527315e-02 3.083326e-02 1.388702e-01 
3.307307e-02 2.161767e-02 1.335844e-01 
4.006703e-02 -1.093713e-02 1.314658e-01 
4.018249e-02 -2.257382e-02 1.326287e-01 
3.358651e-02 -3.675997e-02 1.394709e-01 
1.976375e-02 3.635406e-02 1.444855e-01 
2.569731e-02 2.646772e-02 1.407680e-01 
4.015708e-02 1.938610e-02 1.298675e-01 
4.069683e-02 -1.087109e-02 1.327065e-01 
4.176324e-02 -2.216461e-02 1.330690e-01 
3.518673e-02 -3.633348e-02 1.399084e-01 
2.557102e-02 3.067314e-02 1.421844e-01 
3.337666e-02 2.144948e-02 1.368741e-01 
3.730080e-02 1.109792e-02 1.348252e-01 
4.252477e-02 -1.184178e-02 1.330911e-01 
4.264442e-02 -2.346902e-02 1.342561e-01 
3.703763e-02 -3.728884e-02 1.402898e-01 
2.056722e-02 3.342568e-02 1.477104e-01 
2.553268e-02 2.324050e-02 1.447966e-01 
3.812591e-02 1.557622e-02 1.354269e-01 
3.955430e-02 -8.659378e-03 1.369079e-01 
4.535344e-02 -1.827579e-02 1.332560e-01 
4.263928e-02 -3.095643e-02 1.368351e-01 
3.894171e-02 -4.412726e-02 1.412647e-01 
2.247987e-02 2.656066e-02 1.486892e-01 
3.609722e-02 1.914130e-02 1.384426e-01 
4.001175e-02 8.804121e-03 1.363925e-01 
4.547936e-02 -1.547740e-02 1.346038e-01 
4.560538e-02 -2.710024e-02 1.357705e-01 
2.260743e-02 2.940022e-02 1.500569e-01 
3.335462e-02 2.104611e-02 1.422274e-01 
4.108535e-02 1.191419e-02 1.369374e-01 
4.466347e-02 -1.301151e-02 1.367551e-01 
4.667449e-02 -2.395236e-02 1.363166e-01 
2.371241e-02 3.253274e-02 1.505959e-01 
2.672212e-02 2.175541e-02 1.493253e-01 
3.931616e-02 1.409982e-02 1.398980e-01 
4.504054e-02 -1.157808e-02 1.380495e-01 
4.799215e-02 -2.217700e-02 1.368067e-01 
4.812262e-02 -3.381291e-02 1.379778e-01 
4.446787e-02 -4.696194e-02 1.424013e-01 
2.472931e-02 4.728439e-02 1.499245e-01 
2.536787e-02 2.705932e-02 1.516293e-01 
3.703490e-02 1.903689e-02 1.429802e-01 
4.378774e-02 9.624132e-03 1.384996e-01 
4.999294e-02 -1.870221e-02 1.365484e-01 
5.106363e-02 -2.995977e-02 1.369131e-01 
4.649126e-02 -4.341178e-02 1.421299e-01 
3.206996e-02 5.503247e-02 1.448382e-01 
2.528499e-02 2.544154e-02 1.536602e-01 
3.982001e-02 1.833850e-02 1.425443e-01 
4.560761e-02 8.636497e-03 1.388774e-01 
4.924929e-02 -2.204516e-02 1.392835e-01 
5.405833e-02 -3.192259e-02 1.364364e-01 
4.857311e-02 -4.572751e-02 1.424517e-01 
3.032580e-02 5.154501e-02 1.484216e-01 
2.756876e-02 3.331677e-02 1.527021e-01 
3.517831e-02 1.963408e-02 1.479737e-01 
4.384999e-02 1.081140e-02 1.418361e-01 
5.124763e-02 -1.857065e-02 1.390203e-01 
5.511411e-02 -2.878525e-02 1.369792e-01 
3.141391e-02 5.462862e-02 1.489573e-01 
2.942697e-02 3.229325e-02 1.530707e-01 
4.088662e-02 1.405679e-02 1.456747e-01 
4.831119e-02 -1.541705e-02 1.428434e-01 
5.312765e-02 -2.532321e-02 1.399830e-01 
3.866297e-02 1.319814e-02 1.493707e-01 
4.799959e-02 -1.568676e-02 1.448950e-01 
5.375500e-02 -2.525743e-02 1.412191e-01 
3.713146e-02 1.402205e-02 1.523176e-01 
4.365069e-02 -1.593263e-02 1.502808e-01 
5.413161e-02 -2.382801e-02 1.425097e-01 
4.992984e-02 7.913406e-03 1.441936e-01 
5.382728e-02 -2.410493e-02 1.445551e-01 
5.583356e-02 -3.502483e-02 1.441175e-01 
5.251711e-02 -1.891742e-02 1.468234e-01 
2.919044e-02 -3.579887e-02 -6.114126e-03 
3.028050e-02 -3.247167e-02 -4.183479e-03 
3.133092e-02 -3.358706e-02 -3.050872e-03 
3.495930e-02 -3.316555e-02 -3.815453e-03 
3.195080e-02 -2.900487e-02 -1.051209e-03 
-3.051365e-03 3.550471e-02 1.131958e-02 
3.284907e-04 3.101657e-02 1.158629e-02 
-1.297505e-03 1.803347e-02 1.492340e-02 
2.958469e-02 -2.771546e-02 3.423184e-03 
1.433775e-03 2.688814e-02 1.323342e-02 
-1.868553e-04 1.386933e-02 1.658329e-02 
1.899792e-02 -2.326215e-02 1.097764e-02 
3.322552e-02 -2.730932e-02 2.638801e-03 
4.139676e-03 3.565950e-02 1.155942e-02 
7.397016e-04 2.182080e-02 1.619987e-02 
9.253559e-04 9.697000e-03 1.824627e-02 
1.680560e-02 -1.852291e-02 1.315046e-02 
2.673603e-02 -2.515116e-02 7.996849e-03 
6.186563e-03 2.901476e-02 1.305181e-02 
1.897071e-03 1.463883e-02 1.837000e-02 
1.277049e-02 -1.171944e-02 1.613609e-02 
2.362137e-02 -1.790420e-02 1.030309e-02 
3.172786e-02 -2.550870e-02 6.480195e-03 
7.557164e-03 3.558456e-02 1.260788e-02 
3.291360e-03 2.130556e-02 1.790704e-02 
1.678116e-03 8.229855e-03 2.129005e-02 
1.466492e-02 -9.301569e-03 1.611385e-02 
2.373537e-02 -1.648973e-02 1.159071e-02 
3.184095e-02 -2.410101e-02 7.761765e-03 
7.252234e-03 3.528089e-02 1.446920e-02 
3.879798e-03 2.145275e-02 1.912726e-02 
4.077208e-03 9.339075e-03 2.118294e-02 
1.477943e-02 -7.879091e-03 1.740891e-02 
2.209595e-02 -1.607374e-02 1.418435e-02 
3.281554e-02 -2.219114e-02 8.398990e-03 
4.468253e-03 2.159993e-02 2.034759e-02 
5.567989e-03 9.965722e-03 2.174146e-02 
2.119992e-02 -9.081560e-03 1.511705e-02 
2.932489e-02 -1.673488e-02 1.126801e-02 
4.162769e-02 -2.181513e-02 4.263812e-03 
8.943006e-03 3.132197e-02 1.732366e-02 
8.266223e-03 1.885834e-02 2.001928e-02 
1.548145e-02 -6.309827e-03 1.992417e-02 
2.629190e-02 -1.252352e-02 1.407370e-02 
3.608476e-02 -1.914198e-02 8.952760e-03 
8.168527e-03 3.228219e-02 1.926721e-02 
8.380558e-03 2.027814e-02 2.131182e-02 
1.695594e-02 -5.670660e-03 2.048173e-02 
2.774440e-02 -1.188362e-02 1.463269e-02 
3.751990e-02 -1.849950e-02 9.512674e-03 
1.110922e-02 2.608794e-02 2.010918e-02 
1.222163e-02 1.453253e-02 2.149444e-02 
2.691869e-02 -7.943965e-03 1.606477e-02 
3.584273e-02 -1.507980e-02 1.158002e-02 
1.033488e-02 2.704363e-02 2.205724e-02 
1.055574e-02 1.500850e-02 2.411435e-02 
2.434852e-02 -4.979218e-03 1.880792e-02 
3.843629e-02 -9.208418e-03 1.042818e-02 
1.050384e-02 2.546039e-02 2.386015e-02 
1.072525e-02 1.340774e-02 2.592598e-02 
1.764705e-02 3.380501e-03 2.325766e-02 
3.466664e-02 -8.502618e-03 1.435453e-02 
6.678485e-03 2.027185e-02 2.893595e-02 
5.131801e-03 4.108439e-03 3.291773e-02 
3.827554e-02 -8.152486e-03 1.354334e-02 
7.372786e-03 1.436033e-02 3.120734e-02 
4.355209e-02 -6.837453e-03 1.145405e-02 
5.891431e-03 2.630305e-03 3.598717e-02 
5.050618e-03 6.641632e-03 3.744535e-02 
5.063777e-03 1.418289e-02 3.768348e-02 
5.746686e-03 6.583766e-04 3.975061e-02 
5.331958e-03 6.453234e-03 4.059757e-02 
1.102400e-02 1.628659e-03 3.938986e-02 
1.066211e-02 4.347152e-03 4.076999e-02 
1.018870e-02 1.316135e-02 4.107643e-02 
1.400150e-02 2.900526e-03 4.047532e-02 
1.136943e-02 5.928389e-03 4.330455e-02 
1.069422e-02 -6.836931e-03 4.616377e-02 
1.100754e-02 8.646880e-03 4.468468e-02 
1.482750e-02 -1.633606e-03 4.408235e-02 
9.266756e-03 1.217125e-02 4.683307e-02 
1.577546e-02 3.343996e-03 4.415711e-02 
1.362484e-02 5.087876e-03 4.691807e-02 
1.205840e-02 -8.182126e-03 5.049440e-02 
1.284275e-02 6.036368e-03 4.891786e-02 
1.217492e-02 -6.740324e-03 5.180681e-02 
1.295843e-02 7.471161e-03 5.022401e-02 
1.319241e-02 -4.800979e-03 5.241689e-02 
1.355165e-02 7.619493e-03 5.145475e-02 
1.468716e-02 -4.155409e-03 5.295026e-02 
1.366642e-02 9.053896e-03 5.276098e-02 
1.659586e-02 -1.728960e-03 5.285746e-02 
1.336204e-02 8.719574e-03 5.469285e-02 
1.719011e-02 -1.580280e-03 5.408932e-02 
9.871394e-03 8.221665e-03 5.882320e-02 
1.730541e-02 -1.443217e-04 5.539677e-02 
4.958348e-03 8.530429e-03 6.377744e-02 
1.783562e-02 3.067348e-03 5.607651e-02 
1.448982e-02 -1.123589e-02 6.113195e-02 
1.520397e-02 6.104504e-03 5.894375e-02 
1.724439e-02 -5.199137e-03 5.975427e-02 
9.793992e-03 1.077084e-02 6.339764e-02 
1.902206e-02 3.364019e-03 5.853800e-02 
1.568561e-02 -1.093686e-02 6.361249e-02 
1.716328e-02 1.299484e-02 5.959051e-02 
2.009375e-02 2.226266e-03 5.969345e-02 
1.766480e-02 -1.157791e-02 6.406127e-02 
1.960119e-02 1.105264e-02 5.996409e-02 
2.164205e-02 -1.983316e-04 6.077358e-02 
2.635130e-02 -9.987908e-03 5.946502e-02 
1.895420e-02 5.896491e-03 6.309026e-02 
2.189131e-02 -4.899823e-03 6.319682e-02 
1.894074e-02 1.343919e-02 6.327942e-02 
2.187249e-02 2.670871e-03 6.338586e-02 
2.124802e-02 -1.012200e-02 6.634433e-02 
1.560068e-02 6.829176e-03 6.856529e-02 
2.301194e-02 -1.531824e-03 6.510161e-02 
1.690798e-02 1.664198e-02 6.738954e-02 
2.073514e-02 6.341742e-03 6.678609e-02 
2.456230e-02 -3.958495e-03 6.618274e-02 
1.529106e-02 1.406923e-02 7.069743e-02 
2.269614e-02 5.688416e-03 6.722888e-02 
2.563463e-02 -5.097515e-03 6.733928e-02 
1.726335e-02 1.340679e-02 7.113773e-02 
2.287977e-02 4.063738e-03 6.909917e-02 
2.225834e-02 -8.735254e-03 7.208805e-02 
1.785786e-02 1.355536e-02 7.237207e-02 
2.347312e-02 4.212023e-03 7.033121e-02 
2.285507e-02 -8.586035e-03 7.332601e-02 
1.934667e-02 1.418270e-02 7.288583e-02 
2.317790e-02 3.872755e-03 7.228183e-02 
2.345179e-02 -8.436820e-03 7.456387e-02 
2.083356e-02 1.480924e-02 7.339845e-02 
2.466073e-02 4.508987e-03 7.279510e-02 
2.404850e-02 -8.287582e-03 7.580164e-02 
2.456775e-02 1.510071e-02 7.239872e-02 
2.661826e-02 3.857526e-03 7.323210e-02 
2.779107e-02 -7.928348e-03 7.479034e-02 
2.563726e-02 1.396509e-02 7.355198e-02 
2.857194e-02 3.207280e-03 7.366825e-02 
3.327002e-02 -6.576222e-03 7.234855e-02 
2.493668e-02 1.187183e-02 7.614577e-02 
2.876070e-02 1.581652e-03 7.554289e-02 
2.197381e-02 1.009535e-02 8.027893e-02 
2.758643e-02 7.496164e-04 7.822093e-02 
2.591103e-02 2.129762e-02 7.689238e-02 
2.174366e-02 6.689167e-03 8.282486e-02 
2.913794e-02 -1.679536e-03 7.930314e-02 
2.576034e-02 1.488936e-02 7.998879e-02 
2.426280e-02 1.663320e-03 8.375962e-02 
2.749861e-02 2.334320e-02 7.869995e-02 
1.976680e-02 6.819606e-03 8.758688e-02 
2.451748e-02 -3.062232e-03 8.624131e-02 
2.768590e-02 2.174149e-02 8.057409e-02 
2.263926e-02 6.649091e-03 8.727507e-02 
2.380870e-02 -5.208308e-03 8.888454e-02 
2.787277e-02 2.013636e-02 8.245185e-02 
2.282347e-02 5.014116e-03 8.917735e-02 
2.489043e-02 -6.357175e-03 9.005113e-02 
2.396886e-02 2.097240e-02 8.675232e-02 
2.066379e-02 6.779823e-03 9.205466e-02 
2.362773e-02 -4.109763e-03 9.219011e-02 
2.209274e-02 1.049802e-02 9.196165e-02 
2.326148e-02 -1.359785e-03 9.358628e-02 
2.623114e-02 -1.226766e-02 9.372343e-02 
2.262200e-02 1.372112e-02 9.261080e-02 
2.199622e-02 8.947581e-04 9.573076e-02 
2.316949e-02 -1.103696e-02 9.737268e-02 
2.404265e-02 1.741507e-02 9.251698e-02 
2.252805e-02 4.139801e-03 9.637870e-02 
2.370215e-02 -7.770715e-03 9.802087e-02 
1.829728e-02 1.728950e-02 9.838413e-02 
2.305912e-02 7.378688e-03 9.702534e-02 
2.423315e-02 -4.511066e-03 9.866783e-02 
2.361219e-02 -1.750086e-02 1.018355e-01 
2.034601e-02 1.353950e-02 9.939952e-02 
2.421053e-02 3.139806e-03 9.879027e-02 
1.997070e-02 -1.182787e-02 1.049960e-01 
1.028556e-02 1.896712e-02 1.072518e-01 
2.142838e-02 1.238937e-02 1.005672e-01 
2.439624e-02 1.494798e-03 1.007111e-01 
2.015431e-02 -1.350180e-02 1.069398e-01 
1.368981e-02 1.746356e-02 1.068221e-01 
2.299393e-02 9.939305e-03 1.016588e-01 
2.506764e-02 -1.455329e-03 1.025593e-01 
2.264145e-02 -1.545989e-02 1.072753e-01 
1.477883e-02 1.630684e-02 1.079966e-01 
2.407629e-02 8.789159e-03 1.028265e-01 
2.525497e-02 -3.107799e-03 1.044875e-01 
2.373426e-02 -1.661972e-02 1.084531e-01 
1.586784e-02 1.515012e-02 1.091711e-01 
2.515866e-02 7.639009e-03 1.039942e-01 
2.634019e-02 -4.261416e-03 1.056586e-01 
2.392128e-02 -1.829844e-02 1.104002e-01 
1.598516e-02 1.660852e-02 1.104988e-01 
2.616992e-02 9.575855e-03 1.045575e-01 
2.735295e-02 -2.307539e-03 1.062219e-01 
2.584592e-02 -1.580165e-02 1.101938e-01 
1.658788e-02 1.675917e-02 1.117501e-01 
2.676898e-02 9.725673e-03 1.058001e-01 
2.795330e-02 -2.157478e-03 1.074682e-01 
2.554813e-02 -1.616626e-02 1.122176e-01 
1.628158e-02 1.642694e-02 1.137713e-01 
2.825952e-02 1.036106e-02 1.062850e-01 
2.855458e-02 -2.007028e-03 1.087144e-01 
2.524989e-02 -1.653156e-02 1.142453e-01 
1.688534e-02 1.657792e-02 1.150237e-01 
2.796619e-02 1.002490e-02 1.082855e-01 
2.826109e-02 -2.356185e-03 1.107250e-01 
2.585495e-02 -1.638032e-02 1.155013e-01 
1.145564e-02 1.824682e-02 1.203929e-01 
2.622373e-02 1.358827e-02 1.105183e-01 
3.008825e-02 3.188557e-03 1.099090e-01 
2.499662e-02 -1.229114e-02 1.169881e-01 
2.618955e-02 -2.436653e-02 1.187069e-01 
2.087629e-02 1.523126e-02 1.158291e-01 
3.012964e-02 7.727173e-03 1.106186e-01 
2.864329e-02 -5.669051e-03 1.146046e-01 
2.804096e-02 -1.870302e-02 1.178596e-01 
1.309758e-02 2.034732e-02 1.222040e-01 
2.604530e-02 1.470623e-02 1.138480e-01 
3.169403e-02 5.279619e-03 1.117092e-01 
2.572016e-02 -1.067549e-02 1.195769e-01 
2.872157e-02 -2.169895e-02 1.197407e-01 
1.978534e-02 1.587248e-02 1.199564e-01 
3.261953e-02 1.029669e-02 1.116543e-01 
3.025698e-02 -3.559792e-03 1.164091e-01 
2.966377e-02 -1.657048e-02 1.196696e-01 
1.339295e-02 2.016863e-02 1.255039e-01 
2.724577e-02 1.500646e-02 1.163381e-01 
3.377806e-02 6.068864e-03 1.134298e-01 
2.693028e-02 -1.037302e-02 1.220890e-01 
2.993286e-02 -2.139618e-02 1.222552e-01 
1.265128e-02 1.803627e-02 1.282632e-01 
3.011257e-02 1.481983e-02 1.159697e-01 
3.308604e-02 3.938166e-03 1.161283e-01 
2.892393e-02 -1.102259e-02 1.224865e-01 
3.102699e-02 -2.255866e-02 1.234355e-01 
9.397689e-03 2.561727e-02 1.307803e-01 
1.789755e-02 1.749554e-02 1.262159e-01 
3.167604e-02 1.237188e-02 1.170603e-01 
3.376417e-02 9.928211e-04 1.179898e-01 
3.140015e-02 -1.298118e-02 1.228064e-01 
3.261006e-02 -2.503478e-02 1.245388e-01 
9.516000e-03 2.708854e-02 1.321197e-01 
1.618968e-02 1.799299e-02 1.291253e-01 
3.179245e-02 1.382038e-02 1.183790e-01 
3.476760e-02 2.937782e-03 1.185400e-01 
3.151760e-02 -1.151997e-02 1.241367e-01 
3.272721e-02 -2.356953e-02 1.258730e-01 
9.144165e-03 2.987893e-02 1.335363e-01 
1.490265e-02 2.029299e-02 1.313297e-01 
3.231389e-02 1.704671e-02 1.190039e-01 
3.440134e-02 5.687762e-03 1.199361e-01 
2.935143e-02 -9.767684e-03 1.271131e-01 
3.414931e-02 -1.974864e-02 1.257130e-01 
1.410263e-02 2.127962e-02 1.334614e-01 
3.468113e-02 1.815151e-02 1.187074e-01 
3.596688e-02 3.237700e-03 1.210276e-01 
3.183061e-02 -1.172899e-02 1.274287e-01 
3.483508e-02 -2.274273e-02 1.276001e-01 
8.946171e-03 3.102930e-02 1.369378e-01 
1.471004e-02 2.143145e-02 1.347223e-01 
3.927313e-02 1.890980e-02 1.168078e-01 
3.398520e-02 -1.201263e-03 1.252264e-01 
3.430396e-02 -1.368689e-02 1.277439e-01 
3.730795e-02 -2.469178e-02 1.279154e-01 
1.004544e-02 2.986104e-02 1.381239e-01 
1.580797e-02 2.026582e-02 1.359060e-01 
3.995275e-02 1.600179e-02 1.186554e-01 
3.198738e-02 -5.675128e-03 1.294580e-01 
3.766238e-02 -1.512655e-02 1.272742e-01 
4.066334e-02 -2.611159e-02 1.274450e-01 
1.206724e-02 2.916808e-02 1.385079e-01 
1.598841e-02 1.861518e-02 1.378897e-01 
3.736466e-02 1.893075e-03 1.254602e-01 
3.591747e-02 -1.156339e-02 1.295407e-01 
3.980843e-02 -2.203395e-02 1.289272e-01 
1.028219e-02 3.280642e-02 1.408054e-01 
1.787381e-02 2.416378e-02 1.369844e-01 
4.057851e-02 2.064603e-02 1.205863e-01 
3.643903e-02 -8.287219e-03 1.301595e-01 
3.943945e-02 -1.926532e-02 1.303329e-01 
1.609911e-02 2.778630e-02 1.392736e-01 
2.183308e-02 1.822334e-02 1.370600e-01 
3.615131e-02 -8.644161e-03 1.321988e-01 
4.004228e-02 -1.911473e-02 1.315853e-01 
4.038611e-02 -3.170681e-02 1.341350e-01 
1.670640e-02 2.793817e-02 1.405334e-01 
2.334585e-02 1.885783e-02 1.375202e-01 
3.586092e-02 8.360684e-03 1.303592e-01 
3.529641e-02 -4.566527e-03 1.336811e-01 
3.918739e-02 -1.503708e-02 1.330677e-01 
4.307744e-02 -2.550801e-02 1.324544e-01 
1.210887e-02 3.326316e-02 1.445956e-01 
2.060336e-02 2.509592e-02 1.399595e-01 
2.901653e-02 1.700869e-02 1.353683e-01 
3.959551e-02 8.674497e-03 1.291827e-01 
3.460148e-02 -6.736602e-03 1.364429e-01 
4.027707e-02 -1.619511e-02 1.342435e-01 
4.328358e-02 -2.719186e-02 1.344211e-01 
1.363821e-02 3.388584e-02 1.450507e-01 
2.120947e-02 2.524749e-02 1.412167e-01 
2.961924e-02 1.715933e-02 1.366195e-01 
3.794733e-02 9.149376e-03 1.320667e-01 
3.650302e-02 -4.264944e-03 1.361860e-01 
3.999320e-02 -1.655993e-02 1.362887e-01 
4.388838e-02 -2.704053e-02 1.356746e-01 
1.424667e-02 3.403800e-02 1.463129e-01 
2.181557e-02 2.539907e-02 1.424740e-01 
2.932575e-02 1.682755e-02 1.386650e-01 
3.677754e-02 8.322477e-03 1.348855e-01 
3.710677e-02 -4.113952e-03 1.374383e-01 
4.197048e-02 -1.720214e-02 1.366715e-01 
4.409524e-02 -2.872761e-02 1.376464e-01 
1.228566e-02 4.697649e-02 1.466521e-01 
2.186523e-02 2.996463e-02 1.431594e-01 
2.666964e-02 1.994461e-02 1.417438e-01 
3.503627e-02 1.189776e-02 1.371529e-01 
3.802964e-02 9.606800e-04 1.373329e-01 
3.925430e-02 -1.101738e-02 1.391028e-01 
4.186341e-02 -2.385477e-02 1.400065e-01 
4.399369e-02 -3.542726e-02 1.409909e-01 
1.869853e-02 3.443201e-02 1.463331e-01 
2.442119e-02 2.486513e-02 1.441079e-01 
3.012210e-02 1.533579e-02 1.418914e-01 
3.757793e-02 6.828213e-03 1.380958e-01 
3.880019e-02 -5.120979e-03 1.398663e-01 
4.091875e-02 -1.662287e-02 1.408475e-01 
4.393185e-02 -2.764146e-02 1.410318e-01 
2.356376e-02 2.895473e-02 1.455946e-01 
2.746552e-02 1.845324e-02 1.449794e-01 
3.849742e-02 1.186700e-02 1.379895e-01 
4.148745e-02 9.507109e-04 1.381699e-01 
4.006186e-02 -1.253740e-02 1.423327e-01 
4.129778e-02 -2.460177e-02 1.441243e-01 
4.520708e-02 -3.512383e-02 1.435078e-01 
1.685185e-02 4.879575e-02 1.480041e-01 
2.416881e-02 2.910596e-02 1.468507e-01 
2.716904e-02 1.812151e-02 1.470411e-01 
3.909778e-02 1.201705e-02 1.392358e-01 
4.296969e-02 1.597142e-03 1.386253e-01 
4.243909e-02 -1.136328e-02 1.419875e-01 
4.190402e-02 -2.445025e-02 1.453828e-01 
4.492692e-02 -3.550889e-02 1.455722e-01 
1.648194e-02 5.157254e-02 1.494140e-01 
2.198381e-02 3.094107e-02 1.498773e-01 
2.770067e-02 2.138127e-02 1.476453e-01 
3.784563e-02 1.428902e-02 1.414286e-01 
4.172170e-02 3.859169e-03 1.408176e-01 
4.352967e-02 -1.252091e-02 1.431632e-01 
4.210972e-02 -2.614140e-02 1.473717e-01 
4.779315e-02 -3.559880e-02 1.451423e-01 
1.715127e-02 4.864534e-02 1.513260e-01 
2.307952e-02 2.977767e-02 1.510588e-01 
2.879414e-02 2.022011e-02 1.488243e-01 
3.804578e-02 1.265031e-02 1.433964e-01 
4.280693e-02 2.705553e-03 1.419887e-01 
4.285058e-02 -1.470660e-02 1.459434e-01 
4.280567e-02 -2.915363e-02 1.492875e-01 
1.811594e-02 5.363650e-02 1.511932e-01 
2.584036e-02 3.574257e-02 1.493106e-01 
2.703343e-02 2.383164e-02 1.511207e-01 
3.500977e-02 1.395743e-02 1.472015e-01 
4.243886e-02 5.463222e-03 1.433890e-01 
4.190565e-02 -7.490802e-03 1.467778e-01 
4.403221e-02 -1.900861e-02 1.477734e-01 
2.199513e-02 5.075534e-02 1.506008e-01 
2.470958e-02 3.186669e-02 1.528399e-01 
2.910452e-02 2.004147e-02 1.521471e-01 
4.167422e-02 6.426254e-03 1.455115e-01 
4.379160e-02 -5.019853e-03 1.465008e-01 
4.591735e-02 -1.651056e-02 1.474941e-01 
2.578795e-02 5.094709e-02 1.493597e-01 
2.719503e-02 2.986252e-02 1.531308e-01 
4.187780e-02 4.778108e-03 1.474852e-01 
4.134055e-02 -8.204657e-03 1.509006e-01 
4.062486e-02 7.049730e-03 1.496925e-01 
4.627228e-02 -2.407954e-03 1.474737e-01 
4.849211e-02 -1.700204e-02 1.491184e-01 
2.526505e-02 4.728167e-02 1.541278e-01 
4.082800e-02 5.399080e-03 1.516742e-01 
4.562684e-02 4.924032e-06 1.509289e-01 
3.468869e-02 -2.975823e-02 1.537442e-03 
-5.763821e-03 2.847800e-02 1.141812e-02 
2.940056e-02 -2.754766e-02 5.631695e-03 
-6.205495e-03 3.638530e-02 1.119788e-02 
-3.972911e-03 2.456709e-02 1.300444e-02 
3.013189e-02 -2.365669e-02 5.780277e-03 
-1.929161e-03 2.424098e-02 1.350005e-02 
-6.084080e-04 9.892634e-03 1.651449e-02 
2.334533e-02 -2.091216e-02 1.062607e-02 
3.580957e-02 -2.427335e-02 4.217711e-03 
7.166100e-04 3.282782e-02 1.127939e-02 
-1.880004e-03 1.726743e-02 1.692167e-02 
1.888521e-03 4.763382e-03 1.802158e-02 
2.035556e-02 -1.666302e-02 1.286076e-02 
3.208505e-02 -2.072276e-02 7.055244e-03 
2.264863e-03 2.537750e-02 1.394367e-02 
2.110127e-03 1.161544e-02 1.768843e-02 
5.198670e-03 2.731151e-04 1.888367e-02 
1.439273e-02 -1.137122e-02 1.657037e-02 
2.619934e-02 -1.548319e-02 1.072054e-02 
3.629861e-02 -2.084790e-02 6.207544e-03 
4.082061e-03 3.332575e-02 1.235827e-02 
2.329918e-03 1.842819e-02 1.735714e-02 
5.411477e-03 7.138423e-03 1.854790e-02 
1.011695e-02 -2.913308e-03 1.845147e-02 
1.880534e-02 -9.696168e-03 1.513860e-02 
2.664717e-02 -1.708697e-02 1.248586e-02 
3.751975e-02 -2.178763e-02 7.331246e-03 
4.623533e-03 3.354697e-02 1.357481e-02 
3.681346e-03 1.927831e-02 1.794106e-02 
7.566106e-03 8.639397e-03 1.848779e-02 
1.860591e-02 3.751508e-03 1.327414e-02 
2.092831e-02 -8.167736e-03 1.508513e-02 
2.874978e-02 -1.554864e-02 1.243758e-02 
3.882493e-02 -2.090813e-02 7.919199e-03 
5.845472e-03 3.260614e-02 1.469959e-02 
5.715474e-03 1.895723e-02 1.843167e-02 
1.357922e-02 1.149906e-02 1.577476e-02 
2.373980e-02 5.987366e-03 1.123756e-02 
2.372874e-02 -7.811462e-03 1.493966e-02 
3.229993e-02 -1.452526e-02 1.166487e-02 
4.308429e-02 -1.922092e-02 6.539655e-03 
5.357952e-03 2.866520e-02 1.764425e-02 
4.418317e-03 1.431855e-02 2.205388e-02 
1.942213e-02 1.254017e-02 1.363280e-02 
2.563925e-02 3.888800e-03 1.226865e-02 
2.719997e-02 -8.622543e-03 1.470290e-02 
3.803801e-02 -1.336571e-02 9.548211e-03 
6.352192e-03 2.415364e-02 1.987050e-02 
7.831894e-03 1.165541e-02 2.235690e-02 
2.511275e-02 1.179057e-02 1.204820e-02 
2.481619e-02 -7.367296e-03 1.738403e-02 
3.492320e-02 -1.277778e-02 1.283358e-02 
4.867186e-02 -1.488097e-02 5.227039e-03 
6.895911e-03 2.437572e-02 2.109269e-02 
8.377902e-03 1.187835e-02 2.358492e-02 
2.555482e-02 1.022698e-02 1.379830e-02 
2.828528e-02 -8.179289e-03 1.714273e-02 
4.441744e-02 -8.408616e-03 7.594481e-03 
6.986760e-03 2.933061e-02 2.130387e-02 
6.060056e-03 1.498939e-02 2.574137e-02 
2.396169e-02 1.213661e-02 1.582600e-02 
2.960518e-02 -7.308572e-03 1.772351e-02 
4.921826e-02 -9.712994e-03 6.665025e-03 
8.326250e-03 1.827413e-02 2.511036e-02 
2.595570e-02 1.182543e-02 1.631350e-02 
4.972612e-03 1.715408e-02 2.903969e-02 
3.160668e-02 1.108103e-02 1.472321e-02 
1.061827e-02 6.451969e-05 3.682445e-02 
1.152519e-02 -6.408453e-03 3.969654e-02 
1.190562e-02 -1.521460e-03 4.302557e-02 
1.303957e-02 -4.320889e-03 4.475391e-02 
9.196470e-03 -6.601294e-04 4.772650e-02 
5.575654e-03 6.691623e-03 4.953195e-02 
1.436415e-02 -1.931778e-04 4.606830e-02 
7.636800e-03 6.377730e-03 4.999931e-02 
1.480653e-02 -1.803908e-03 4.789126e-02 
1.050206e-02 6.710705e-03 4.978492e-02 
1.524907e-02 -3.418161e-03 4.971766e-02 
9.207797e-03 1.967380e-03 5.357299e-02 
1.397153e-02 -8.205249e-03 5.350919e-02 
1.288155e-02 2.959588e-03 5.266719e-02 
1.441571e-02 -9.833239e-03 5.534981e-02 
1.412822e-02 1.999880e-03 5.381461e-02 
6.455362e-03 6.103758e-03 5.906509e-02 
1.606917e-02 -1.452098e-04 5.486858e-02 
7.824810e-03 6.979591e-03 5.961847e-02 
1.662155e-02 8.046586e-05 5.610954e-02 
7.565536e-03 6.557368e-03 6.155893e-02 
1.637181e-02 -3.466725e-04 5.803922e-02 
1.711802e-02 -1.383755e-02 6.144633e-02 
1.542512e-02 4.124710e-04 6.006629e-02 
4.708147e-03 5.600415e-03 6.694922e-02 
1.597857e-02 6.386035e-04 6.130958e-02 
1.672381e-02 -1.285922e-02 6.473892e-02 
1.514060e-02 3.239944e-03 6.274025e-02 
1.668905e-02 -9.575957e-03 6.547672e-02 
1.257650e-02 2.700254e-03 6.617090e-02 
1.654551e-02 -8.155793e-03 6.682026e-02 
1.254554e-02 5.958845e-03 6.690509e-02 
1.731751e-02 -4.219450e-03 6.685407e-02 
5.416101e-03 7.054853e-03 7.275953e-02 
1.577943e-02 -4.195330e-04 6.838290e-02 
1.122312e-02 4.459179e-03 7.150964e-02 
1.762210e-02 -4.426276e-03 7.005165e-02 
2.320907e-02 -1.396390e-02 6.929924e-02 
1.085220e-02 2.183229e-03 7.408252e-02 
1.887631e-02 -5.391323e-03 7.120568e-02 
7.207086e-03 9.584890e-03 7.590018e-02 
1.524129e-02 1.988651e-03 7.301810e-02 
2.163060e-02 -6.885621e-03 7.155991e-02 
9.980540e-03 8.071709e-03 7.625095e-02 
1.719408e-02 -1.684568e-04 7.407805e-02 
2.197880e-02 -1.037295e-02 7.403388e-02 
1.274852e-02 6.561373e-03 7.660112e-02 
1.994934e-02 -1.668231e-03 7.442961e-02 
2.473300e-02 -1.186371e-02 7.438575e-02 
1.389239e-02 3.748338e-03 7.837512e-02 
2.189973e-02 -3.823594e-03 7.548868e-02 
1.831723e-02 1.755001e-02 7.310508e-02 
1.665640e-02 2.242041e-03 7.872326e-02 
2.464798e-02 -5.318303e-03 7.583848e-02 
1.371732e-02 8.436040e-03 8.044324e-02 
2.011435e-02 -4.529566e-04 7.897654e-02 
2.808806e-02 -7.998403e-03 7.609389e-02 
1.312747e-02 2.464810e-03 8.428508e-02 
2.196288e-02 -4.463669e-03 8.065707e-02 
1.655326e-02 1.202016e-02 8.088967e-02 
1.811078e-02 -7.785622e-04 8.371925e-02 
2.690986e-02 -7.681260e-03 8.010061e-02 
1.343003e-02 2.263425e-03 8.751804e-02 
2.227283e-02 -4.670945e-03 8.387410e-02 
2.097009e-02 1.685770e-02 7.991291e-02 
1.771653e-02 2.141546e-04 8.703986e-02 
2.492877e-02 -8.026940e-03 8.484189e-02 
1.719709e-02 8.378828e-03 8.659581e-02 
2.198706e-02 -1.826835e-03 8.656362e-02 
1.904450e-02 4.372727e-03 8.828532e-02 
2.464217e-02 -5.183381e-03 8.753148e-02 
2.411329e-02 1.698552e-02 8.282701e-02 
2.250273e-02 1.672584e-03 8.852968e-02 
2.729813e-02 -8.539382e-03 8.849937e-02 
1.875873e-02 7.216837e-03 9.097484e-02 
2.355493e-02 -2.999766e-03 9.094685e-02 
2.382930e-02 1.980180e-02 8.549086e-02 
2.060972e-02 3.205917e-03 9.267020e-02 
2.541253e-02 -7.024356e-03 9.264393e-02 
2.497383e-02 1.702561e-02 8.725817e-02 
2.256806e-02 1.042474e-03 9.373331e-02 
2.576986e-02 -1.052876e-02 9.517075e-02 
2.063766e-02 1.158086e-02 9.345840e-02 
2.382482e-02 7.391258e-05 9.489085e-02 
2.542576e-02 -1.284470e-02 9.780205e-02 
2.209788e-02 1.428540e-02 9.334702e-02 
2.448321e-02 2.153555e-03 9.550583e-02 
2.688765e-02 -1.007202e-02 9.768154e-02 
1.793523e-02 1.248584e-02 9.833750e-02 
2.514047e-02 4.229274e-03 9.611975e-02 
2.674363e-02 -8.644842e-03 9.903148e-02 
7.867746e-03 1.658778e-02 1.054333e-01 
2.069816e-02 1.096976e-02 9.866660e-02 
2.629584e-02 1.413653e-03 9.791286e-02 
2.388113e-02 -1.486260e-02 1.045489e-01 
6.660780e-03 1.366451e-02 1.088453e-01 
2.205787e-02 1.184344e-02 9.918336e-02 
2.765060e-02 2.296853e-03 9.843026e-02 
2.605743e-02 -1.327866e-02 1.043196e-01 
1.599593e-02 1.731012e-02 1.032084e-01 
2.481214e-02 1.033132e-02 9.951093e-02 
2.880849e-02 -5.205673e-04 1.002254e-01 
2.883098e-02 -1.478021e-02 1.046452e-01 
1.876279e-02 1.578750e-02 1.035332e-01 
2.676410e-02 8.173670e-03 1.005710e-01 
3.076441e-02 -2.682250e-03 1.012875e-01 
6.934086e-03 1.676872e-02 1.128278e-01 
2.152499e-02 1.426828e-02 1.038572e-01 
3.030349e-02 7.314963e-03 1.001644e-01 
3.033568e-02 -6.836503e-03 1.045667e-01 
1.534565e-02 1.790718e-02 1.085502e-01 
2.657672e-02 1.284791e-02 1.026138e-01 
3.294863e-02 3.971505e-03 1.011285e-01 
2.900593e-02 -1.356608e-02 1.092658e-01 
1.962843e-02 1.582760e-02 1.080314e-01 
2.922496e-02 9.501607e-03 1.035788e-01 
3.322659e-02 -1.341000e-03 1.043004e-01 
9.445303e-03 1.810499e-02 1.158618e-01 
2.239250e-02 1.430688e-02 1.083515e-01 
3.354453e-02 9.286869e-03 1.024334e-01 
2.961604e-02 -8.154914e-03 1.105701e-01 
1.702151e-02 1.859174e-02 1.123165e-01 
2.744652e-02 1.288499e-02 1.070939e-01 
3.382362e-02 3.999932e-03 1.056029e-01 
3.068917e-02 -1.287830e-02 1.130466e-01 
1.979365e-02 1.706553e-02 1.126331e-01 
3.177446e-02 1.265971e-02 1.059373e-01 
3.577402e-02 1.844569e-03 1.066619e-01 
1.884138e-02 1.784911e-02 1.147327e-01 
3.004960e-02 1.279071e-02 1.087545e-01 
3.641767e-02 3.914024e-03 1.072634e-01 
3.718385e-02 -2.773154e-02 1.167927e-01 
1.169316e-02 1.902327e-02 1.209128e-01 
2.301528e-02 1.392765e-02 1.148579e-01 
3.575753e-02 1.019084e-02 1.074068e-01 
3.157143e-02 -1.286647e-02 1.175851e-01 
5.883082e-03 1.778534e-02 1.269742e-01 
2.216965e-02 1.655145e-02 1.163011e-01 
3.255467e-02 1.086187e-02 1.110605e-01 
3.735009e-02 6.781999e-04 1.110519e-01 
5.737612e-03 1.922950e-02 1.283401e-01 
2.283078e-02 1.861907e-02 1.168966e-01 
3.162017e-02 1.163490e-02 1.131466e-01 
3.720715e-02 2.097290e-03 1.123942e-01 
9.380067e-03 1.833365e-02 1.278719e-01 
2.318323e-02 1.516448e-02 1.194705e-01 
3.357296e-02 9.477805e-03 1.142065e-01 
3.652959e-02 -7.619141e-03 1.176733e-01 
3.259815e-02 -2.543086e-02 1.260693e-01 
4.024815e-03 2.454406e-02 1.312633e-01 
1.300838e-02 1.744139e-02 1.274056e-01 
2.675060e-02 1.428757e-02 1.190249e-01 
3.473608e-02 6.670458e-03 1.160151e-01 
3.301767e-02 -1.262484e-02 1.233949e-01 
3.467759e-02 -2.571983e-02 1.264716e-01 
4.712618e-03 2.663048e-02 1.318518e-01 
1.532066e-02 2.081507e-02 1.264590e-01 
2.500312e-02 1.442184e-02 1.218867e-01 
3.459253e-02 8.090624e-03 1.173586e-01 
3.606218e-02 -8.499396e-03 1.217010e-01 
3.533413e-02 -2.358659e-02 1.270643e-01 
3.734706e-03 2.743292e-02 1.339951e-01 
1.189640e-02 1.967239e-02 1.309001e-01 
2.405517e-02 1.520376e-02 1.239975e-01 
3.523902e-02 1.015833e-02 1.179510e-01 
3.112504e-02 -1.110283e-02 1.276480e-01 
3.678786e-02 -2.077137e-02 1.268854e-01 
3.465725e-03 2.702213e-02 1.360468e-01 
1.246063e-02 1.990304e-02 1.321665e-01 
2.380975e-02 1.478608e-02 1.260174e-01 
3.579465e-02 1.038536e-02 1.191991e-01 
3.249007e-02 -1.019764e-02 1.281426e-01 
3.814783e-02 -1.985646e-02 1.273807e-01 
3.320472e-03 2.846794e-02 1.374139e-01 
1.149158e-02 2.069690e-02 1.343060e-01 
2.285882e-02 1.556985e-02 1.281363e-01 
3.486287e-02 1.115902e-02 1.212949e-01 
4.045478e-02 1.611891e-03 1.205418e-01 
3.729569e-02 -1.721210e-02 1.288351e-01 
4.532032e-02 -2.480395e-02 1.257703e-01 
1.146216e-02 2.399275e-02 1.349857e-01 
2.120100e-02 1.755908e-02 1.303542e-01 
3.243613e-02 1.248276e-02 1.242470e-01 
3.882693e-02 3.572336e-03 1.227353e-01 
3.962233e-02 -1.186193e-02 1.272133e-01 
4.447139e-02 -2.216687e-02 1.272206e-01 
6.706619e-03 2.714342e-02 1.389801e-01 
1.649736e-02 2.067562e-02 1.343154e-01 
2.619327e-02 1.427087e-02 1.296961e-01 
3.737300e-02 9.226606e-03 1.236053e-01 
4.218205e-02 -9.785207e-04 1.236089e-01 
4.221157e-02 -1.712248e-02 1.288606e-01 
4.470374e-02 -2.951930e-02 1.311836e-01 
1.105635e-02 2.502110e-02 1.383956e-01 
2.080681e-02 1.857625e-02 1.337430e-01 
3.205652e-02 1.348881e-02 1.276069e-01 
4.080982e-02 6.524124e-03 1.238154e-01 
4.170202e-02 -6.992108e-03 1.276219e-01 
4.496991e-02 -1.861997e-02 1.291623e-01 
4.510272e-02 -3.310188e-02 1.338108e-01 
1.550030e-02 2.475698e-02 1.371292e-01 
2.520093e-02 1.833233e-02 1.324962e-01 
3.559860e-02 1.261601e-02 1.271465e-01 
4.354275e-02 5.018167e-03 1.241191e-01 
4.113223e-02 -1.493398e-02 1.323430e-01 
4.756464e-02 -2.388691e-02 1.308114e-01 
9.940363e-03 2.726400e-02 1.419077e-01 
2.132946e-02 2.208732e-02 1.356802e-01 
3.097312e-02 1.569394e-02 1.310678e-01 
4.130764e-02 1.000958e-02 1.257417e-01 
4.090229e-02 -1.538284e-02 1.343790e-01 
4.812488e-02 -2.365819e-02 1.320718e-01 
1.133056e-02 2.813450e-02 1.423898e-01 
2.269896e-02 2.295687e-02 1.361650e-01 
3.312063e-02 1.720783e-02 1.307888e-01 
4.107956e-02 9.589321e-03 1.277479e-01 
4.648996e-02 -2.170536e-02 1.342958e-01 
5.057221e-02 -3.273596e-02 1.350857e-01 
1.892487e-02 2.856433e-02 1.386756e-01 
2.697962e-02 2.086121e-02 1.355911e-01 
3.814396e-02 1.577777e-02 1.294662e-01 
4.216641e-02 4.936636e-03 1.302385e-01 
4.893514e-02 -3.078608e-02 1.373191e-01 
1.021431e-02 3.038010e-02 1.459057e-01 
2.079069e-02 2.454310e-02 1.404307e-01 
2.884797e-02 1.684432e-02 1.373380e-01 
4.079450e-02 1.242805e-02 1.304322e-01 
4.658608e-02 -2.762280e-02 1.396522e-01 
7.110153e-03 3.482632e-02 1.483498e-01 
2.015279e-02 3.085928e-02 1.405113e-01 
2.739486e-02 2.251836e-02 1.381990e-01 
3.777013e-02 1.678355e-02 1.328213e-01 
4.336204e-02 7.236429e-03 1.320683e-01 
1.463244e-02 3.338012e-02 1.452844e-01 
2.272315e-02 2.564037e-02 1.421716e-01 
3.076681e-02 1.794577e-02 1.390769e-01 
4.424569e-02 1.480827e-02 1.306403e-01 
5.256330e-02 -1.926377e-02 1.361417e-01 
8.240229e-03 3.528785e-02 1.508903e-01 
2.046334e-02 3.068475e-02 1.438117e-01 
2.851374e-02 2.297554e-02 1.407123e-01 
4.123345e-02 1.915353e-02 1.330228e-01 
4.323265e-02 -2.035988e-02 1.448120e-01 
5.818201e-02 -2.366903e-02 1.353799e-01 
9.281675e-03 3.060332e-02 1.534705e-01 
2.233061e-02 2.666554e-02 1.455718e-01 
3.277541e-02 2.088430e-02 1.401306e-01 
4.759850e-02 1.535122e-02 1.315130e-01 
5.297854e-02 -1.760663e-02 1.387496e-01 
1.159907e-02 4.617514e-02 1.483541e-01 
9.017721e-03 3.019488e-02 1.555455e-01 
2.208244e-02 2.625734e-02 1.476207e-01 
3.403555e-02 1.991447e-02 1.412902e-01 
4.730013e-02 1.310963e-02 1.341863e-01 
5.635050e-02 -2.217923e-02 1.396275e-01 
1.110937e-02 4.212698e-02 1.518001e-01 
1.266534e-02 2.927543e-02 1.550224e-01 
2.728056e-02 2.662703e-02 1.455484e-01 
3.915199e-02 2.030591e-02 1.392563e-01 
5.254224e-02 -1.850746e-02 1.428223e-01 
6.279137e-02 -2.401549e-02 1.374075e-01 
1.446815e-02 4.968368e-02 1.486070e-01 
1.192306e-02 3.378524e-02 1.557795e-01 
2.239616e-02 2.607804e-02 1.509376e-01 
3.743401e-02 2.045172e-02 1.421490e-01 
5.310319e-02 -1.827815e-02 1.440814e-01 
6.258433e-02 -2.446958e-02 1.394327e-01 
1.502813e-02 4.991250e-02 1.498648e-01 
2.528286e-02 2.637842e-02 1.505228e-01 
4.252816e-02 2.084076e-02 1.401156e-01 
6.244067e-02 -2.304509e-02 1.407801e-01 
1.558812e-02 5.014131e-02 1.511226e-01 
3.186955e-02 2.434655e-02 1.482519e-01 
5.781511e-02 -2.194765e-02 1.454362e-01 
2.942284e-02 2.570370e-02 1.512737e-01 
3.664715e-02 1.737295e-02 1.489405e-01 
6.189366e-02 -2.772647e-02 1.462202e-01 
1.892542e-02 4.880940e-02 1.526588e-01 
3.482297e-02 1.566455e-02 1.525646e-01 
6.245365e-02 -2.749765e-02 1.474780e-01 
2.029385e-02 4.965088e-02 1.531257e-01 
6.524918e-02 -2.709446e-02 1.470717e-01 
-1.264022e-02 3.042825e-02 1.152223e-02 
-9.107683e-03 1.833891e-02 1.376721e-02 
-1.145035e-02 3.147234e-02 1.213781e-02 
-7.914660e-03 1.940023e-02 1.438352e-02 
3.543500e-02 -2.053661e-02 5.393852e-03 
-8.690896e-03 3.223713e-02 1.202992e-02 
-5.844610e-03 1.942412e-02 1.489218e-02 
1.343971e-02 -9.630817e-03 1.471388e-02 
2.649330e-02 -1.703212e-02 1.043656e-02 
3.745022e-02 -2.047552e-02 5.907687e-03 
-7.145138e-03 2.971460e-02 1.366486e-02 
-4.983033e-03 1.610357e-02 1.716384e-02 
2.452472e-03 4.166651e-03 1.734658e-02 
1.948954e-02 -1.109550e-02 1.365800e-02 
2.918802e-02 -1.617409e-02 1.033163e-02 
4.075620e-02 -1.881788e-02 5.204252e-03 
-2.649252e-03 2.842496e-02 1.334240e-02 
-1.845545e-03 1.328432e-02 1.808248e-02 
3.333958e-03 8.050575e-04 1.963144e-02 
1.646005e-02 -6.660102e-03 1.532256e-02 
2.550555e-02 -1.255137e-02 1.260796e-02 
3.710838e-02 -1.522196e-02 7.460869e-03 
4.728765e-02 -1.944268e-02 3.585161e-03 
-3.996610e-03 1.668683e-02 1.964196e-02 
9.827141e-04 6.045785e-03 2.067312e-02 
8.739948e-03 -1.482111e-03 1.918724e-02 
1.917905e-02 -5.819993e-03 1.520826e-02 
2.886081e-02 -1.090852e-02 1.188220e-02 
3.846924e-02 -1.595918e-02 8.581410e-03 
-2.730496e-03 3.181073e-02 1.539296e-02 
-5.449981e-04 1.825255e-02 1.889343e-02 
3.742012e-03 6.865390e-03 2.054805e-02 
1.284076e-02 9.243740e-04 1.781329e-02 
2.255550e-02 -4.194582e-03 1.447437e-02 
3.088411e-02 -1.085650e-02 1.239036e-02 
4.112137e-02 -1.510948e-02 8.480679e-03 
1.895642e-04 3.079659e-02 1.579063e-02 
3.257243e-04 1.493283e-02 2.117051e-02 
8.736264e-03 8.203415e-03 1.906385e-02 
2.000101e-02 2.811265e-03 1.499815e-02 
2.699964e-02 -5.421424e-03 1.415005e-02 
3.660606e-02 -1.048793e-02 1.084373e-02 
4.741470e-02 -1.393857e-02 6.350712e-03 
3.185909e-03 2.189295e-02 1.886410e-02 
8.833161e-03 1.211019e-02 1.926150e-02 
2.161426e-02 6.456751e-03 1.447993e-02 
2.727526e-02 -3.317947e-03 1.486749e-02 
3.491958e-02 -1.075243e-02 1.340382e-02 
4.703256e-02 -1.263274e-02 7.673936e-03 
3.375002e-03 1.782555e-02 2.175912e-02 
1.445231e-02 1.418854e-02 1.717051e-02 
2.185523e-02 2.361423e-03 1.735157e-02 
3.016968e-02 -4.300078e-03 1.526604e-02 
3.845299e-02 -1.093642e-02 1.318831e-02 
6.792617e-03 1.938203e-02 2.100750e-02 
1.709594e-02 8.825569e-03 1.921720e-02 
2.541904e-02 2.151601e-03 1.712830e-02 
3.305842e-02 -5.280571e-03 1.566385e-02 
4.453649e-02 -7.980771e-03 1.053043e-02 
1.469265e-02 7.821177e-03 2.242946e-02 
2.437269e-02 2.690458e-03 1.908259e-02 
3.332735e-02 -3.183363e-03 1.637778e-02 
4.606575e-02 -4.339402e-03 1.002937e-02 
2.290407e-02 6.838555e-03 2.000624e-02 
2.791248e-02 -3.730012e-03 2.102870e-02 
4.075572e-02 -4.887282e-03 1.461158e-02 
2.160589e-02 2.990310e-03 2.362964e-02 
1.946687e-02 6.373401e-03 2.518026e-02 
2.180849e-02 -7.405866e-03 2.875925e-02 
9.865310e-03 1.154505e-03 3.374195e-02 
2.255080e-02 -2.664964e-03 2.830391e-02 
9.484206e-03 1.578207e-04 3.752725e-02 
1.155352e-02 2.003488e-04 3.801768e-02 
1.047744e-02 7.451730e-04 4.002195e-02 
6.339822e-03 8.086980e-03 4.126196e-02 
1.479550e-02 1.326070e-03 3.910288e-02 
6.146476e-03 7.595800e-03 4.316176e-02 
1.529029e-02 1.618526e-03 4.034669e-02 
6.937042e-03 1.232009e-02 4.266268e-02 
1.196729e-02 1.626206e-03 4.376396e-02 
1.906596e-02 -6.725044e-03 4.290364e-02 
7.629962e-03 1.079170e-02 4.445286e-02 
1.198129e-02 -7.113299e-04 4.621829e-02 
1.977228e-02 -8.276268e-03 4.469926e-02 
7.636321e-03 8.476833e-03 4.690377e-02 
1.541665e-02 9.176286e-04 4.538711e-02 
1.980179e-02 -1.063457e-02 4.715779e-02 
9.707192e-03 8.511204e-03 4.738522e-02 
1.679950e-02 1.683192e-04 4.652584e-02 
1.265950e-02 7.503368e-03 4.775845e-02 
1.838997e-02 -2.419049e-03 4.821573e-02 
8.925998e-03 1.118336e-02 5.009238e-02 
1.397165e-02 4.657199e-04 5.121716e-02 
1.836387e-02 -1.112159e-02 5.301534e-02 
1.494625e-02 3.387587e-03 5.124802e-02 
1.797081e-02 -9.776361e-03 5.437799e-02 
1.387283e-02 3.936420e-03 5.326679e-02 
1.894189e-02 -6.823212e-03 5.440295e-02 
1.307382e-02 8.934763e-03 5.350854e-02 
1.881098e-02 -9.940534e-04 5.397721e-02 
7.960060e-03 1.105536e-02 5.718570e-02 
1.711647e-02 5.057043e-03 5.432501e-02 
1.946870e-02 -8.890745e-03 5.814160e-02 
1.338300e-02 8.737582e-03 5.666742e-02 
1.912595e-02 -1.201406e-03 5.714258e-02 
1.360438e-02 4.578020e-03 5.971017e-02 
2.004461e-02 -4.596650e-03 5.951938e-02 
5.992437e-03 8.003838e-03 6.431413e-02 
1.724612e-02 4.360967e-03 5.940183e-02 
2.028637e-02 -8.810536e-03 6.258205e-02 
1.193078e-02 8.307789e-03 6.253554e-02 
1.972971e-02 7.272901e-04 6.099959e-02 
2.142533e-02 -1.410293e-02 6.555396e-02 
1.557593e-02 8.083763e-03 6.222180e-02 
2.200533e-02 -1.070275e-03 6.203377e-02 
1.354063e-02 3.380475e-03 6.675035e-02 
2.203888e-02 -3.417270e-03 6.452791e-02 
8.685262e-03 9.975360e-03 6.865378e-02 
1.923454e-02 5.536845e-03 6.439602e-02 
2.228577e-02 -7.628322e-03 6.760506e-02 
1.117203e-02 6.329120e-03 7.026817e-02 
2.172007e-02 1.904340e-03 6.599846e-02 
2.206699e-02 -1.454654e-02 7.196854e-02 
1.325404e-02 6.366361e-03 7.073026e-02 
2.243008e-02 3.582407e-04 6.781967e-02 
2.618346e-02 -1.205037e-02 7.036856e-02 
1.306560e-02 5.869802e-03 7.267138e-02 
2.225080e-02 -1.428588e-04 6.975239e-02 
2.803312e-02 -1.013699e-02 7.025450e-02 
1.287686e-02 5.372338e-03 7.461612e-02 
2.274936e-02 1.519899e-04 7.100447e-02 
2.987586e-02 -8.230845e-03 7.014084e-02 
1.337738e-02 5.668351e-03 7.587308e-02 
2.324794e-02 4.468341e-04 7.225665e-02 
3.171166e-02 -6.331891e-03 7.002780e-02 
1.477159e-02 4.911933e-03 7.702178e-02 
2.463731e-02 -3.061703e-04 7.340078e-02 
1.774554e-02 3.899683e-03 7.736960e-02 
2.489214e-02 -4.507840e-03 7.650358e-02 
1.699297e-02 1.520192e-02 7.513770e-02 
2.071290e-02 2.888595e-03 7.771685e-02 
2.919770e-02 -3.907903e-03 7.547323e-02 
1.489849e-02 4.210128e-03 8.218660e-02 
2.478214e-02 -1.015842e-03 7.853881e-02 
1.856176e-02 3.991819e-03 8.183287e-02 
2.503805e-02 -5.227528e-03 8.166249e-02 
1.869329e-02 1.425888e-02 7.946540e-02 
2.242473e-02 1.928904e-03 8.206786e-02 
2.822390e-02 -8.090419e-03 8.259527e-02 
1.688032e-02 7.739759e-03 8.467185e-02 
2.471142e-02 1.227389e-04 8.310715e-02 
1.621648e-02 4.599858e-03 8.792800e-02 
2.339057e-02 -3.840353e-03 8.705876e-02 
1.898574e-02 5.433576e-03 8.767137e-02 
2.410908e-02 -5.404851e-03 8.891612e-02 
2.263785e-02 5.213332e-03 8.730745e-02 
2.640691e-02 -7.219699e-03 8.996039e-02 
2.210864e-02 2.091894e-02 8.315380e-02 
2.245859e-02 4.715467e-03 8.926627e-02 
2.758682e-02 -6.114760e-03 9.051449e-02 
2.239218e-02 2.302325e-02 8.381419e-02 
2.274441e-02 6.855544e-03 8.992710e-02 
2.786831e-02 -3.958219e-03 9.117610e-02 
2.065356e-02 2.281959e-02 8.655293e-02 
2.302978e-02 8.991605e-03 9.058669e-02 
2.679656e-02 -3.411617e-03 9.325306e-02 
2.174411e-02 1.138663e-02 9.205756e-02 
2.753634e-02 1.395161e-03 9.260384e-02 
3.402116e-02 -7.826780e-03 9.244373e-02 
2.092676e-02 1.639525e-02 9.222591e-02 
2.670597e-02 6.432392e-03 9.277139e-02 
3.183734e-02 -4.371285e-03 9.402730e-02 
1.126335e-02 1.752386e-02 9.909958e-02 
1.912261e-02 9.875343e-03 9.751644e-02 
2.629017e-02 1.443668e-03 9.664786e-02 
3.278633e-02 -7.796074e-03 9.649151e-02 
1.266138e-02 1.676504e-02 1.002516e-01 
2.120249e-02 9.908777e-03 9.795374e-02 
2.836353e-02 1.485625e-03 9.708601e-02 
3.418509e-02 -8.554215e-03 9.764348e-02 
1.018456e-02 1.575841e-02 1.037806e-01 
1.944142e-02 9.677430e-03 1.007515e-01 
2.729317e-02 2.036861e-03 9.916666e-02 
3.379033e-02 -7.202307e-03 9.901274e-02 
9.091528e-03 1.632633e-02 1.058779e-01 
1.836041e-02 1.023770e-02 1.028398e-01 
2.757492e-02 4.183688e-03 9.981925e-02 
3.406600e-02 -5.044505e-03 9.966606e-02 
7.996373e-03 1.689533e-02 1.079793e-01 
1.865115e-02 1.238058e-02 1.034900e-01 
2.785624e-02 6.326480e-03 1.004706e-01 
3.367131e-02 -3.694216e-03 1.010341e-01 
3.178240e-03 1.536266e-02 1.131268e-01 
1.735926e-02 1.478718e-02 1.049680e-01 
2.656795e-02 8.725988e-03 1.019444e-01 
3.305205e-02 -4.886875e-04 1.017933e-01 
1.696449e-02 1.613909e-02 1.063373e-01 
2.549707e-02 9.283843e-03 1.040277e-01 
3.332787e-02 1.658420e-03 1.024427e-01 
