# .PCD v.6 - Point Cloud Data file format
FIELDS x y z 
SIZE 4 4 4 
TYPE F F F 
COUNT 1 1 1 
WIDTH 1176
HEIGHT 1
POINTS 1176
DATA ascii
3.236441e-02 3.751015e-02 2.061250e-01 
3.783041e-02 1.193422e-02 2.078630e-01 
-1.111869e-02 -4.161806e-02 1.730272e-01 
2.798451e-02 4.395230e-02 2.012340e-01 
3.882121e-02 1.758753e-02 2.064880e-01 
-1.121079e-02 -3.452186e-02 1.708229e-01 
3.645081e-02 3.199304e-02 2.031480e-01 
3.950151e-02 6.682753e-03 2.033170e-01 
-1.260069e-02 -5.035117e-02 1.658847e-01 
3.669231e-02 3.405312e-02 2.011600e-01 
4.038611e-02 5.856856e-03 2.016730e-01 
-1.290729e-02 -4.924969e-02 1.633330e-01 
3.661021e-02 3.336802e-02 1.988680e-01 
4.132511e-02 4.094607e-03 2.000350e-01 
-1.193259e-02 -5.118837e-02 1.615393e-01 
3.910581e-02 2.955850e-02 1.982030e-01 
3.813931e-02 -1.053733e-03 1.955180e-01 
4.170091e-02 2.388721e-02 1.975540e-01 
-1.720879e-02 -2.864186e-02 1.550640e-01 
2.628441e-02 5.046045e-02 1.868362e-01 
4.487241e-02 1.631013e-02 1.972430e-01 
-1.537869e-02 -3.568584e-02 1.536702e-01 
3.360751e-02 4.022877e-02 1.892180e-01 
4.390271e-02 6.367727e-03 1.940530e-01 
-1.382049e-02 -4.780052e-02 1.519355e-01 
4.044861e-02 2.832282e-02 1.912540e-01 
2.406931e-02 5.241824e-02 1.796836e-01 
4.624751e-02 1.667530e-02 1.926130e-01 
-1.058089e-02 -3.757980e-02 1.508246e-01 
3.600831e-02 3.957755e-02 1.851766e-01 
4.565331e-02 8.542157e-03 1.897090e-01 
-1.092529e-02 -4.558134e-02 1.479057e-01 
4.058611e-02 3.356825e-02 1.858700e-01 
4.569531e-02 5.921713e-03 1.874020e-01 
-9.323493e-03 -4.856478e-02 1.464774e-01 
3.894181e-02 3.496262e-02 1.825055e-01 
4.707041e-02 5.044541e-03 1.860662e-01 
-7.837093e-03 -4.951296e-02 1.450330e-01 
4.291711e-02 3.092331e-02 1.828600e-01 
4.690281e-02 -2.264847e-03 1.834517e-01 
4.676071e-02 2.036637e-02 1.829313e-01 
4.285981e-02 -9.333287e-03 1.781196e-01 
3.076681e-02 4.811924e-02 1.714767e-01 
4.750021e-02 1.392814e-02 1.809675e-01 
3.864301e-02 -1.459717e-02 1.726866e-01 
3.493681e-02 4.205694e-02 1.718886e-01 
4.808071e-02 1.031022e-02 1.789760e-01 
1.071961e-02 -3.951327e-02 1.498387e-01 
4.115031e-02 3.386549e-02 1.736912e-01 
4.887761e-02 2.894661e-03 1.770093e-01 
6.132507e-03 -4.731359e-02 1.439080e-01 
4.589351e-02 2.499655e-02 1.744566e-01 
4.575681e-02 -1.182632e-02 1.720139e-01 
3.366621e-02 4.575082e-02 1.652789e-01 
4.873401e-02 6.962649e-03 1.735867e-01 
1.297011e-02 -4.530242e-02 1.451815e-01 
4.541781e-02 2.633773e-02 1.706934e-01 
4.733451e-02 -1.264958e-02 1.696326e-01 
3.475511e-02 4.502872e-02 1.625087e-01 
4.972031e-02 -4.133957e-04 1.705819e-01 
1.221651e-02 -5.116110e-02 1.407836e-01 
4.990241e-02 8.181802e-03 1.698346e-01 
2.292301e-02 -4.136491e-02 1.475957e-01 
4.922711e-02 1.497672e-02 1.684100e-01 
3.248841e-02 -3.473274e-02 1.535132e-01 
4.811941e-02 2.089115e-02 1.666409e-01 
3.749751e-02 -3.097418e-02 1.560663e-01 
4.662891e-02 2.497449e-02 1.645293e-01 
4.045871e-02 -2.716655e-02 1.571498e-01 
4.464031e-02 2.914091e-02 1.620530e-01 
4.526291e-02 -2.156078e-02 1.596415e-01 
4.203561e-02 3.532812e-02 1.591877e-01 
4.795221e-02 -1.397654e-02 1.606723e-01 
3.529521e-02 4.407648e-02 1.533842e-01 
5.046051e-02 -3.569667e-03 1.616732e-01 
2.297701e-02 -4.797027e-02 1.388845e-01 
5.096551e-02 7.909409e-03 1.612512e-01 
3.730071e-02 -3.449877e-02 1.486202e-01 
4.795871e-02 2.167830e-02 1.583310e-01 
4.525891e-02 -2.217170e-02 1.536829e-01 
4.300771e-02 3.485518e-02 1.539515e-01 
5.013311e-02 -9.898397e-03 1.564968e-01 
2.884521e-02 4.957951e-02 1.428193e-01 
5.150421e-02 3.473899e-03 1.567766e-01 
3.373171e-02 -3.905589e-02 1.409865e-01 
4.946751e-02 1.716435e-02 1.545489e-01 
4.379761e-02 -2.666686e-02 1.476567e-01 
4.698321e-02 3.002528e-02 1.519544e-01 
5.061711e-02 -1.345229e-02 1.519744e-01 
3.286091e-02 4.562120e-02 1.407912e-01 
5.199191e-02 -2.785870e-05 1.522641e-01 
3.009811e-02 -4.369548e-02 1.332147e-01 
5.147031e-02 1.258177e-02 1.511142e-01 
4.131231e-02 -3.117486e-02 1.408047e-01 
4.751351e-02 2.562255e-02 1.474059e-01 
4.765671e-02 -1.681520e-02 1.448421e-01 
3.584931e-02 4.181658e-02 1.380112e-01 
5.242801e-02 -2.586427e-03 1.477136e-01 
3.082321e-02 -4.350720e-02 1.288066e-01 
5.027001e-02 1.311912e-02 1.454308e-01 
4.434841e-02 -2.713661e-02 1.383477e-01 
4.556701e-02 3.019555e-02 1.412672e-01 
5.055141e-02 -1.087688e-02 1.423884e-01 
3.111071e-02 4.892931e-02 1.297640e-01 
5.133531e-02 4.629179e-03 1.423134e-01 
3.781381e-02 -3.553939e-02 1.294078e-01 
4.910881e-02 2.140314e-02 1.399974e-01 
4.809881e-02 -1.826051e-02 1.366123e-01 
3.826431e-02 4.043518e-02 1.311875e-01 
5.229451e-02 -1.948597e-03 1.391678e-01 
3.047611e-02 -4.212806e-02 1.198256e-01 
5.154681e-02 1.468451e-02 1.379662e-01 
4.471771e-02 -2.767041e-02 1.300017e-01 
4.493991e-02 3.014503e-02 1.322268e-01 
5.051531e-02 -1.225055e-02 1.337694e-01 
3.301521e-02 4.763572e-02 1.224499e-01 
5.327831e-02 3.184578e-03 1.352198e-01 
3.515771e-02 -3.803104e-02 1.185248e-01 
5.011231e-02 1.915639e-02 1.321214e-01 
4.670751e-02 -2.257088e-02 1.267551e-01 
4.086461e-02 3.606949e-02 1.243401e-01 
5.155721e-02 -8.088277e-03 1.297938e-01 
2.459431e-02 5.345923e-02 1.110986e-01 
5.185141e-02 7.599614e-03 1.293520e-01 
3.878251e-02 -3.391734e-02 1.164298e-01 
4.916171e-02 2.361843e-02 1.265993e-01 
4.825381e-02 -1.842290e-02 1.231209e-01 
3.934481e-02 4.074133e-02 1.183137e-01 
5.199481e-02 -1.900627e-03 1.253987e-01 
3.250261e-02 -4.159039e-02 1.074186e-01 
5.118271e-02 1.590017e-02 1.241666e-01 
4.562961e-02 -2.399457e-02 1.170944e-01 
4.331371e-02 3.465852e-02 1.174215e-01 
5.197121e-02 -8.503927e-03 1.213947e-01 
2.751311e-02 5.301404e-02 1.043881e-01 
5.226691e-02 7.281489e-03 1.209559e-01 
3.866241e-02 -3.549597e-02 1.073606e-01 
4.861251e-02 2.252579e-02 1.173739e-01 
4.718741e-02 -1.981391e-02 1.134163e-01 
4.231471e-02 3.926790e-02 1.117390e-01 
5.152341e-02 -4.179107e-03 1.161720e-01 
2.555061e-02 -4.615971e-02 9.266250e-02 
5.131941e-02 1.171998e-02 1.153378e-01 
4.367741e-02 -2.840912e-02 1.064769e-01 
4.696611e-02 3.011354e-02 1.112848e-01 
5.144151e-02 -9.845737e-03 1.120974e-01 
2.731101e-02 5.203490e-02 9.510970e-02 
5.145781e-02 1.103276e-02 1.116221e-01 
4.562511e-02 -2.528750e-02 1.042984e-01 
4.482491e-02 3.374128e-02 1.058752e-01 
5.213621e-02 -2.696017e-03 1.091048e-01 
3.328771e-02 -3.987190e-02 9.121240e-02 
5.114451e-02 1.831851e-02 1.078220e-01 
4.796991e-02 -2.018302e-02 1.025163e-01 
3.682231e-02 4.021970e-02 9.579020e-02 
5.210761e-02 -4.292287e-04 1.053297e-01 
3.533261e-02 -3.771405e-02 8.899840e-02 
4.959201e-02 2.081941e-02 1.028118e-01 
4.934911e-02 -1.602566e-02 9.991730e-02 
3.558041e-02 4.484423e-02 9.103410e-02 
5.280601e-02 6.763599e-03 1.023152e-01 
4.182041e-02 -3.062812e-02 9.060650e-02 
4.671341e-02 2.850703e-02 9.687870e-02 
5.061601e-02 -9.848637e-03 9.729860e-02 
2.447571e-02 5.408094e-02 7.833940e-02 
5.311461e-02 1.202453e-02 9.889490e-02 
4.673561e-02 -2.456578e-02 9.093160e-02 
4.281701e-02 3.541620e-02 9.002860e-02 
5.222241e-02 -6.833757e-04 9.507040e-02 
3.839591e-02 -3.631457e-02 8.094920e-02 
4.957301e-02 2.274878e-02 9.248800e-02 
5.029801e-02 -1.343001e-02 9.036760e-02 
2.350601e-02 4.979742e-02 7.063770e-02 
5.332061e-02 8.531614e-03 9.242240e-02 
4.424831e-02 -2.714035e-02 8.216440e-02 
4.500101e-02 3.274314e-02 8.514000e-02 
5.145871e-02 -5.185207e-03 8.770940e-02 
2.917091e-02 -4.615022e-02 6.614660e-02 
5.113531e-02 1.308907e-02 8.684070e-02 
4.437091e-02 -2.796165e-02 7.823100e-02 
4.512521e-02 3.209727e-02 8.123760e-02 
5.131701e-02 -9.963167e-03 8.343600e-02 
2.388901e-02 5.373890e-02 6.293660e-02 
5.202021e-02 8.275858e-03 8.342480e-02 
4.355791e-02 -3.080261e-02 7.340520e-02 
4.692981e-02 2.920324e-02 7.863980e-02 
5.145901e-02 -1.072972e-02 7.953430e-02 
2.395501e-02 5.313436e-02 5.884540e-02 
5.250501e-02 1.056559e-02 7.993770e-02 
4.555461e-02 -2.760232e-02 7.117180e-02 
4.473471e-02 3.291685e-02 7.290700e-02 
5.182861e-02 -6.426887e-03 7.600750e-02 
3.131661e-02 -4.362112e-02 5.567840e-02 
5.281821e-02 1.592449e-02 7.641130e-02 
4.941001e-02 -2.039633e-02 7.068840e-02 
3.640891e-02 4.163289e-02 6.209320e-02 
5.397401e-02 2.829245e-03 7.418500e-02 
4.260261e-02 -3.230383e-02 6.165270e-02 
4.706481e-02 2.814750e-02 6.794170e-02 
5.151281e-02 -1.004257e-02 6.884980e-02 
2.920901e-02 -4.754239e-02 4.673790e-02 
5.147121e-02 1.255165e-02 6.838160e-02 
4.650281e-02 -2.501635e-02 6.119240e-02 
4.143051e-02 3.645689e-02 5.933310e-02 
5.223051e-02 -2.656847e-03 6.569620e-02 
3.597191e-02 -4.013517e-02 4.868460e-02 
5.010361e-02 2.020124e-02 6.343090e-02 
4.938921e-02 -1.874339e-02 5.983260e-02 
3.356091e-02 4.419810e-02 4.867450e-02 
5.202541e-02 2.782046e-03 6.164610e-02 
3.704701e-02 -3.893596e-02 4.546330e-02 
4.907681e-02 2.170104e-02 5.848690e-02 
4.753131e-02 -2.151178e-02 5.395680e-02 
3.650481e-02 4.106705e-02 4.691530e-02 
5.159441e-02 -6.160507e-03 5.677350e-02 
2.495701e-02 -5.022839e-02 3.013600e-02 
5.242831e-02 1.035829e-02 5.681730e-02 
4.386451e-02 -3.051322e-02 4.617760e-02 
4.463981e-02 3.100727e-02 4.944370e-02 
5.098241e-02 -1.205713e-02 5.183340e-02 
2.559531e-02 -5.117255e-02 2.633270e-02 
5.257601e-02 9.636751e-03 5.276760e-02 
4.446831e-02 -3.033522e-02 4.249930e-02 
4.417091e-02 3.145633e-02 4.485060e-02 
5.200461e-02 -9.791667e-03 4.865540e-02 
2.837761e-02 -4.998881e-02 2.450950e-02 
5.208031e-02 1.104689e-02 4.821170e-02 
4.555351e-02 -2.912421e-02 3.927610e-02 
4.417701e-02 3.289229e-02 4.069250e-02 
5.273951e-02 -1.166009e-02 4.503130e-02 
2.052351e-02 5.551217e-02 1.909190e-02 
5.299261e-02 6.092391e-03 4.461430e-02 
3.798121e-02 -3.818209e-02 2.782230e-02 
4.853531e-02 2.333643e-02 3.994640e-02 
4.803911e-02 -2.053303e-02 3.619430e-02 
3.687831e-02 4.284814e-02 2.887860e-02 
5.144031e-02 -1.802937e-03 3.864800e-02 
3.555871e-02 -4.329939e-02 2.107390e-02 
4.998061e-02 1.830981e-02 3.678160e-02 
4.655911e-02 -2.126941e-02 3.054120e-02 
3.808651e-02 4.204581e-02 2.561360e-02 
5.134811e-02 1.643366e-03 3.445180e-02 
4.230911e-02 -3.475019e-02 2.321090e-02 
4.743841e-02 2.735985e-02 3.058990e-02 
5.224091e-02 -6.631347e-03 3.204800e-02 
4.069701e-02 -3.778001e-02 1.869850e-02 
4.910411e-02 2.425743e-02 2.910470e-02 
5.306991e-02 -4.406527e-03 3.003920e-02 
4.567961e-02 -3.141442e-02 2.062820e-02 
4.591531e-02 3.123129e-02 2.360730e-02 
5.342071e-02 6.274841e-03 2.796000e-02 
5.006691e-02 -1.553446e-02 2.246140e-02 
4.318881e-02 -3.432744e-02 1.381900e-02 
4.725511e-02 2.828127e-02 2.035880e-02 
5.273881e-02 1.087930e-02 2.320590e-02 
5.319521e-02 -2.783887e-03 2.156970e-02 
5.287471e-02 -1.219562e-02 1.939700e-02 
5.237111e-02 -1.844873e-02 1.718900e-02 
5.258131e-02 -1.837965e-02 1.592580e-02 
5.320961e-02 -1.620786e-02 1.514680e-02 
5.461031e-02 -8.777317e-03 1.533020e-02 
5.403521e-02 5.168430e-03 1.395600e-02 
5.530691e-02 -9.616777e-03 1.154210e-02 
-1.146660e-03 3.736090e-02 2.459050e-01 
1.515433e-03 3.315441e-02 2.435530e-01 
7.042762e-03 2.893817e-02 2.439010e-01 
5.008933e-03 7.790058e-03 2.412040e-01 
1.489543e-02 3.381449e-02 2.428510e-01 
1.148909e-02 9.359367e-03 2.396120e-01 
-1.276936e-02 5.431831e-03 2.235510e-01 
1.859759e-02 1.527365e-02 2.401870e-01 
1.655089e-02 1.044780e-02 2.362060e-01 
-9.486965e-03 -5.704314e-03 2.198400e-01 
-1.399236e-03 4.050801e-03 2.228150e-01 
1.932744e-03 9.099859e-03 2.233290e-01 
8.753909e-04 7.532959e-03 2.217370e-01 
-1.337806e-04 2.037710e-03 2.204810e-01 
-6.439461e-04 -3.600212e-03 2.195350e-01 
-5.926887e-03 -1.002804e-02 2.157640e-01 
1.940976e-02 4.024332e-02 2.270820e-01 
2.171613e-02 2.904611e-02 2.283040e-01 
1.950755e-02 1.733377e-02 2.268320e-01 
4.243598e-03 6.217864e-03 2.173600e-01 
5.019356e-04 -9.333798e-03 2.152340e-01 
2.091394e-02 4.317236e-02 2.234760e-01 
2.340073e-02 2.515439e-02 2.253720e-01 
4.966666e-03 8.265589e-03 2.143600e-01 
8.819507e-04 -1.016455e-02 2.122430e-01 
-1.269392e-02 -2.860829e-02 2.042740e-01 
2.520603e-02 2.783494e-02 2.230500e-01 
5.740956e-03 6.386080e-03 2.116980e-01 
2.950052e-05 -1.265982e-02 2.086120e-01 
-1.003003e-02 -2.801328e-02 2.025160e-01 
2.745354e-02 3.423276e-02 2.206950e-01 
2.543138e-02 1.571923e-02 2.198720e-01 
1.028907e-03 -1.266832e-02 2.059090e-01 
-9.894192e-03 -3.083121e-02 1.994640e-01 
2.896630e-02 3.027170e-02 2.187260e-01 
2.716500e-02 1.361373e-02 2.178870e-01 
6.796686e-04 -1.530545e-02 2.025670e-01 
-7.114138e-03 -2.926702e-02 1.977000e-01 
2.497380e-02 4.647953e-02 2.116320e-01 
2.878179e-02 3.952605e-02 2.135120e-01 
3.255007e-02 3.264503e-02 2.153730e-01 
3.268093e-02 2.406318e-02 2.150830e-01 
3.085235e-02 1.126086e-02 2.139020e-01 
-5.785952e-03 -2.924337e-02 1.928830e-01 
3.435501e-02 2.967712e-02 2.124190e-01 
3.222568e-02 1.021892e-02 2.115970e-01 
-9.511906e-03 -3.324138e-02 1.874170e-01 
2.747830e-02 4.771451e-02 2.043210e-01 
3.600627e-02 2.278367e-02 2.107840e-01 
-3.128721e-03 -2.253290e-02 1.883270e-01 
3.441098e-02 3.511579e-02 2.065290e-01 
3.443578e-02 9.144418e-03 2.076400e-01 
-1.507904e-02 -4.590066e-02 1.791275e-01 
3.321990e-02 3.867478e-02 2.032530e-01 
3.678729e-02 9.641314e-03 2.069280e-01 
-1.193842e-02 -4.037735e-02 1.783731e-01 
2.996429e-02 4.588505e-02 1.983050e-01 
3.976715e-02 1.956194e-02 2.058270e-01 
-7.291452e-03 -3.116523e-02 1.782947e-01 
3.606186e-02 3.450822e-02 1.999190e-01 
4.073077e-02 1.095303e-02 2.038950e-01 
-1.054446e-02 -3.533794e-02 1.730179e-01 
3.282699e-02 4.168811e-02 1.949470e-01 
4.099419e-02 1.012790e-02 2.019330e-01 
-1.181171e-02 -3.495500e-02 1.697988e-01 
3.330826e-02 4.278150e-02 1.929250e-01 
3.848044e-02 6.235774e-03 1.983890e-01 
-1.444816e-02 -4.142323e-02 1.662476e-01 
4.206048e-02 2.268770e-02 1.982290e-01 
-2.688864e-02 -2.015768e-02 1.549313e-01 
3.276330e-02 4.633189e-02 1.888730e-01 
3.718465e-02 3.032130e-03 1.944590e-01 
-1.473698e-02 -4.325183e-02 1.626486e-01 
4.420088e-02 1.176438e-02 1.972700e-01 
-2.161066e-02 -2.735962e-02 1.554591e-01 
4.196799e-02 2.805036e-02 1.932360e-01 
5.979449e-03 -1.223162e-02 1.714629e-01 
3.649336e-02 4.662091e-02 1.868099e-01 
4.086464e-02 3.374679e-03 1.924130e-01 
-1.403526e-02 -3.806280e-02 1.578816e-01 
4.447330e-02 1.599122e-02 1.926160e-01 
-1.449015e-02 -2.452904e-02 1.551800e-01 
4.319497e-02 2.816002e-02 1.895580e-01 
1.177664e-02 -1.333144e-02 1.707927e-01 
3.763799e-02 4.185978e-02 1.834525e-01 
2.967612e-02 -5.887984e-03 1.811262e-01 
-1.349118e-02 -4.822585e-02 1.543347e-01 
4.461480e-02 2.828073e-03 1.893810e-01 
-1.213933e-02 -3.817437e-02 1.531570e-01 
4.649078e-02 1.304518e-02 1.886260e-01 
-4.670402e-03 -2.740746e-02 1.560987e-01 
4.557601e-02 2.413039e-02 1.858850e-01 
1.433944e-02 -1.656348e-02 1.669638e-01 
4.112786e-02 3.448484e-02 1.807776e-01 
3.040514e-02 -1.153707e-02 1.763783e-01 
3.563864e-02 4.534399e-02 1.748899e-01 
4.069926e-02 -5.322046e-03 1.817568e-01 
-1.226900e-02 -4.612094e-02 1.477118e-01 
4.762527e-02 2.590483e-03 1.846855e-01 
-5.542391e-03 -3.714923e-02 1.503396e-01 
4.833407e-02 1.511308e-02 1.829145e-01 
2.225756e-02 -1.809171e-02 1.666867e-01 
4.113336e-02 3.514087e-02 1.749779e-01 
4.392940e-02 -4.839630e-03 1.793767e-01 
-7.056422e-03 -4.489149e-02 1.463411e-01 
4.820739e-02 1.744563e-02 1.791941e-01 
3.102409e-02 -1.702547e-02 1.691789e-01 
3.917762e-02 3.916031e-02 1.697757e-01 
4.740813e-02 -6.306647e-04 1.779850e-01 
4.266878e-04 -4.111993e-02 1.475779e-01 
4.700943e-02 2.306698e-02 1.744003e-01 
4.257667e-02 -1.183298e-02 1.733147e-01 
4.830587e-02 6.251647e-03 1.745399e-01 
8.217207e-03 -3.849703e-02 1.491834e-01 
4.844102e-02 1.807671e-02 1.723985e-01 
2.486034e-02 -2.701063e-02 1.586946e-01 
4.565483e-02 2.595436e-02 1.685460e-01 
3.803331e-02 -1.917851e-02 1.661273e-01 
4.706752e-02 -1.060332e-02 1.705866e-01 
-8.488379e-04 -5.281339e-02 1.391908e-01 
4.943420e-02 -3.940375e-04 1.701686e-01 
1.225229e-02 -4.311391e-02 1.464153e-01 
5.015364e-02 1.224767e-02 1.683510e-01 
2.597287e-02 -3.391529e-02 1.541653e-01 
4.699265e-02 2.516995e-02 1.637260e-01 
3.949587e-02 -2.308327e-02 1.616599e-01 
4.524300e-02 3.381119e-02 1.604937e-01 
4.419081e-02 -1.825160e-02 1.634053e-01 
3.889355e-02 4.205554e-02 1.539813e-01 
4.767595e-02 -1.512404e-02 1.644491e-01 
3.167474e-02 4.868708e-02 1.469673e-01 
4.798447e-02 -1.413563e-02 1.634075e-01 
3.148424e-02 4.992117e-02 1.455043e-01 
4.829343e-02 -1.314591e-02 1.623643e-01 
7.677837e-04 -5.998156e-02 1.311196e-01 
4.871577e-02 -1.120160e-02 1.613122e-01 
3.306419e-03 -5.834625e-02 1.315648e-01 
4.960974e-02 -9.379616e-03 1.606129e-01 
3.720786e-03 -5.632393e-02 1.304315e-01 
5.003307e-02 -7.431434e-03 1.595589e-01 
6.776328e-03 -5.479831e-02 1.312715e-01 
5.057013e-02 -4.526103e-03 1.584957e-01 
2.066689e-02 -4.626766e-02 1.393838e-01 
5.142909e-02 5.204527e-03 1.570206e-01 
3.642487e-02 -3.552479e-02 1.486955e-01 
5.085604e-02 1.936859e-02 1.540715e-01 
4.557505e-02 -2.271056e-02 1.529985e-01 
4.026516e-02 3.793377e-02 1.433314e-01 
5.091205e-02 -8.179892e-03 1.543520e-01 
2.642721e-02 -4.319529e-02 1.384273e-01 
5.173774e-02 9.515887e-03 1.520825e-01 
4.031993e-02 -3.016116e-02 1.462342e-01 
4.757343e-02 2.688814e-02 1.461454e-01 
4.847690e-02 -1.716505e-02 1.498299e-01 
3.432821e-02 4.661423e-02 1.332258e-01 
5.239218e-02 -2.256210e-03 1.501090e-01 
2.892129e-02 -4.146829e-02 1.352013e-01 
5.087065e-02 1.221669e-02 1.463851e-01 
4.289912e-02 -2.748214e-02 1.430564e-01 
4.436688e-02 3.146154e-02 1.384688e-01 
4.936698e-02 -1.207743e-02 1.451938e-01 
2.310514e-02 -4.718845e-02 1.276927e-01 
5.162469e-02 5.341745e-03 1.439926e-01 
3.987781e-02 -3.255970e-02 1.376316e-01 
4.814688e-02 2.457965e-02 1.383030e-01 
4.891651e-02 -1.667306e-02 1.416709e-01 
3.719650e-02 4.667367e-02 1.266859e-01 
5.201854e-02 -4.436706e-04 1.412172e-01 
3.360949e-02 -3.901521e-02 1.298399e-01 
5.167127e-02 1.580298e-02 1.381538e-01 
4.402547e-02 -2.521410e-02 1.351472e-01 
4.355124e-02 3.470863e-02 1.289270e-01 
5.077096e-02 -1.180361e-02 1.377307e-01 
1.618934e-02 -4.953649e-02 1.138776e-01 
5.305770e-02 1.683462e-03 1.369262e-01 
3.611202e-02 -3.728292e-02 1.266034e-01 
4.982975e-02 1.886410e-02 1.315489e-01 
4.625437e-02 -2.141941e-02 1.315519e-01 
3.937341e-02 4.075786e-02 1.201574e-01 
5.203956e-02 -7.757331e-03 1.334030e-01 
2.261234e-02 -4.648881e-02 1.133969e-01 
5.241972e-02 6.318737e-03 1.310717e-01 
3.528064e-02 -3.785330e-02 1.210214e-01 
5.149155e-02 1.783302e-02 1.279805e-01 
4.368925e-02 -2.854737e-02 1.253289e-01 
4.567420e-02 3.100866e-02 1.209405e-01 
4.809083e-02 -1.843545e-02 1.264794e-01 
3.619985e-02 4.566872e-02 1.108966e-01 
5.161643e-02 -7.157848e-03 1.268430e-01 
2.240637e-02 -4.720602e-02 1.069125e-01 
5.236358e-02 5.878261e-03 1.248773e-01 
3.749666e-02 -3.597566e-02 1.162498e-01 
4.935051e-02 2.114654e-02 1.197548e-01 
4.466625e-02 -2.434139e-02 1.194107e-01 
4.419321e-02 3.630334e-02 1.129514e-01 
5.028648e-02 -1.248843e-02 1.213553e-01 
1.680058e-02 -5.107896e-02 9.774690e-02 
5.163573e-02 1.447498e-03 1.197545e-01 
3.328311e-02 -3.887884e-02 1.081562e-01 
5.067676e-02 1.714361e-02 1.161592e-01 
3.822229e-02 -3.374983e-02 1.102433e-01 
5.012052e-02 2.359523e-02 1.138047e-01 
4.039344e-02 -3.007883e-02 1.103068e-01 
4.932594e-02 2.809511e-02 1.114530e-01 
4.477379e-02 -2.490569e-02 1.119682e-01 
4.129193e-02 3.705888e-02 1.029158e-01 
4.933156e-02 -1.371915e-02 1.131683e-01 
5.154731e-02 -9.496920e-04 1.123555e-01 
2.631601e-02 -4.531461e-02 9.553850e-02 
5.243859e-02 9.137545e-03 1.107629e-01 
3.540969e-02 -3.682369e-02 1.006147e-01 
5.137795e-02 1.985390e-02 1.075450e-01 
4.295138e-02 -2.714716e-02 1.043544e-01 
4.245394e-02 3.424141e-02 9.765260e-02 
4.768677e-02 -1.898615e-02 1.060215e-01 
5.054477e-02 -9.382885e-03 1.060428e-01 
1.509338e-02 -5.225235e-02 8.065760e-02 
5.290676e-02 3.304232e-04 1.056573e-01 
3.043963e-02 -4.269511e-02 9.070680e-02 
5.159001e-02 1.318089e-02 1.019817e-01 
4.086481e-02 -3.143325e-02 9.664920e-02 
4.639830e-02 2.842471e-02 9.491260e-02 
4.711065e-02 -1.943628e-02 9.915910e-02 
5.034042e-02 -6.780212e-03 9.916610e-02 
2.447984e-02 -4.540657e-02 8.085830e-02 
5.195049e-02 9.410025e-03 9.749000e-02 
4.004052e-02 -3.198590e-02 9.080730e-02 
4.710704e-02 2.769148e-02 9.032870e-02 
4.866886e-02 -1.741356e-02 9.501740e-02 
5.420769e-02 1.859760e-03 9.622550e-02 
3.900518e-02 -3.257047e-02 8.606720e-02 
4.761123e-02 2.688539e-02 8.687580e-02 
5.160917e-02 -1.066002e-02 9.280210e-02 
3.022170e-02 -4.308677e-02 7.728530e-02 
5.059165e-02 1.364682e-02 8.808640e-02 
4.723558e-02 -2.076004e-02 8.763740e-02 
3.962499e-02 4.371532e-02 7.452290e-02 
5.156684e-02 1.076407e-03 8.758810e-02 
3.761204e-02 -3.503566e-02 7.852590e-02 
4.728773e-02 2.449274e-02 8.022850e-02 
4.821818e-02 -1.762168e-02 8.415360e-02 
5.120283e-02 1.506687e-03 8.327370e-02 
3.746509e-02 -3.689585e-02 7.457620e-02 
4.868487e-02 2.234019e-02 7.761430e-02 
4.786273e-02 -2.144115e-02 8.027840e-02 
5.173479e-02 -3.546749e-03 8.027170e-02 
3.214613e-02 -4.187863e-02 6.658970e-02 
5.211120e-02 1.534719e-02 7.722170e-02 
4.509759e-02 -2.364985e-02 7.417560e-02 
3.996245e-02 4.065302e-02 6.291500e-02 
5.262867e-02 -5.571518e-03 7.723680e-02 
3.327643e-02 -4.193032e-02 6.345200e-02 
5.224799e-02 1.568068e-02 7.327450e-02 
4.584447e-02 -2.252783e-02 7.063920e-02 
3.187320e-02 4.598244e-02 5.135540e-02 
5.324848e-02 -1.229446e-03 7.326530e-02 
3.594701e-02 -3.806035e-02 6.118760e-02 
5.085360e-02 2.072761e-02 6.748610e-02 
4.746683e-02 -1.845286e-02 6.751060e-02 
5.174177e-02 2.686394e-03 6.749760e-02 
3.849485e-02 -3.522686e-02 5.893140e-02 
4.727686e-02 2.544288e-02 5.981550e-02 
4.885077e-02 -1.641821e-02 6.438940e-02 
1.769281e-02 -5.227116e-02 4.012800e-02 
5.288722e-02 2.699378e-03 6.439730e-02 
3.847151e-02 -3.607389e-02 5.486140e-02 
4.830576e-02 2.445334e-02 5.667860e-02 
4.747255e-02 -2.003518e-02 5.949080e-02 
3.332111e-02 4.799979e-02 3.973120e-02 
5.354997e-02 -1.391785e-03 6.132100e-02 
3.492369e-02 -3.936574e-02 4.797560e-02 
4.948160e-02 2.019173e-02 5.402020e-02 
4.696301e-02 -2.070605e-02 5.498570e-02 
5.304636e-02 2.269891e-03 5.635130e-02 
4.021407e-02 -3.175027e-02 4.754190e-02 
4.439135e-02 3.084822e-02 4.421010e-02 
5.060748e-02 -8.570601e-03 5.265980e-02 
3.066203e-02 -4.243871e-02 3.754270e-02 
5.160234e-02 1.589410e-02 4.940330e-02 
4.765925e-02 -2.364209e-02 4.897480e-02 
3.502569e-02 4.425133e-02 3.022870e-02 
5.249969e-02 -2.359424e-03 4.945440e-02 
3.379715e-02 -3.966244e-02 3.572530e-02 
5.005499e-02 1.999065e-02 4.337730e-02 
4.739349e-02 -2.224747e-02 4.438160e-02 
3.686016e-02 4.521537e-02 2.742600e-02 
5.149398e-02 -2.828332e-03 4.441890e-02 
3.189758e-02 -4.231729e-02 3.004880e-02 
5.085007e-02 1.689242e-02 4.020310e-02 
4.534369e-02 -2.686803e-02 3.884990e-02 
4.114426e-02 3.870918e-02 2.765090e-02 
5.101456e-02 -7.756883e-03 4.032490e-02 
2.943521e-02 -4.488665e-02 2.381340e-02 
5.164760e-02 1.378508e-02 3.701960e-02 
4.571351e-02 -2.454843e-02 3.465340e-02 
3.936777e-02 4.197672e-02 2.134880e-02 
5.201910e-02 -1.577470e-04 3.610630e-02 
3.950385e-02 -3.486194e-02 2.738100e-02 
4.743159e-02 2.748886e-02 2.737210e-02 
5.121562e-02 -1.053488e-02 3.372510e-02 
3.596858e-02 -4.048226e-02 2.193890e-02 
4.973233e-02 2.046536e-02 2.738010e-02 
5.192071e-02 -1.268192e-02 3.175420e-02 
3.997636e-02 -3.794670e-02 2.238030e-02 
4.950117e-02 2.410007e-02 2.386380e-02 
5.374529e-02 -5.386910e-03 2.970470e-02 
4.418566e-02 -2.894429e-02 2.227180e-02 
4.367157e-02 3.621170e-02 1.423010e-02 
5.374018e-02 8.975841e-03 2.515250e-02 
5.119334e-02 -9.816434e-03 2.356280e-02 
4.679224e-02 -2.604544e-02 1.996360e-02 
3.886509e-02 -3.947041e-02 1.277310e-02 
5.161922e-02 2.206529e-02 1.731890e-02 
5.371500e-02 1.057277e-02 1.914220e-02 
5.370485e-02 4.125869e-03 1.843340e-02 
5.355093e-02 1.001829e-03 1.719940e-02 
5.402442e-02 3.175164e-03 1.592100e-02 
5.251729e-02 1.143018e-02 1.207500e-02 
5.242928e-02 -1.579198e-02 1.227910e-02 
-6.524027e-03 1.295220e-02 2.425300e-01 
-4.373033e-03 1.038356e-02 2.388840e-01 
-8.895576e-04 1.204164e-02 2.384070e-01 
1.644041e-02 3.244407e-02 2.433910e-01 
1.536721e-02 2.091586e-02 2.427330e-01 
3.317625e-04 9.914760e-03 2.341640e-01 
2.543463e-02 3.512025e-02 2.385480e-01 
2.752445e-02 2.404512e-02 2.396290e-01 
-4.393441e-03 3.673201e-03 2.229480e-01 
4.784734e-03 1.403360e-02 2.252530e-01 
2.463043e-02 2.397204e-02 2.337830e-01 
2.025701e-02 1.910080e-02 2.310910e-01 
6.776585e-03 1.548447e-02 2.229000e-01 
2.421102e-03 9.334784e-03 2.204200e-01 
-9.842410e-04 -2.520001e-03 2.195270e-01 
-1.185364e-02 -1.219367e-02 2.138910e-01 
2.430662e-02 3.200877e-02 2.268170e-01 
1.980348e-02 1.992155e-02 2.253430e-01 
5.060056e-03 1.059116e-02 2.173730e-01 
7.486428e-04 -6.053775e-03 2.168300e-01 
2.483405e-02 2.292516e-02 2.245160e-01 
5.769778e-03 9.526370e-03 2.147090e-01 
-1.144049e-03 -1.221525e-02 2.135770e-01 
2.648598e-02 3.584109e-02 2.209420e-01 
1.834522e-02 1.513028e-02 2.189070e-01 
5.238720e-03 -4.515875e-03 2.137240e-01 
-1.527503e-02 -2.471386e-02 2.042230e-01 
2.627310e-02 1.971004e-02 2.205880e-01 
6.791817e-03 -3.998850e-03 2.123580e-01 
-1.299633e-02 -2.552148e-02 2.034970e-01 
3.013653e-02 2.627700e-02 2.194990e-01 
7.582749e-03 1.034285e-03 2.096850e-01 
-1.067835e-03 -1.583282e-02 2.065800e-01 
-1.467810e-02 -3.090845e-02 2.001450e-01 
3.229143e-02 2.659057e-02 2.174880e-01 
-3.179305e-03 -2.093963e-02 2.029410e-01 
2.639050e-02 4.893381e-02 2.075120e-01 
3.417615e-02 2.600657e-02 2.154840e-01 
3.040673e-02 1.458532e-02 2.142920e-01 
-4.794733e-05 -1.579224e-02 2.005040e-01 
-8.187068e-03 -2.899401e-02 1.969560e-01 
2.713790e-02 4.913330e-02 2.034990e-01 
3.625037e-02 2.545610e-02 2.125010e-01 
2.729273e-02 1.038087e-02 2.088310e-01 
-6.718246e-03 -2.939971e-02 1.945450e-01 
3.753023e-02 2.622762e-02 2.098610e-01 
2.891899e-02 8.888530e-03 2.068200e-01 
-8.309907e-03 -3.274095e-02 1.908100e-01 
3.375388e-02 4.323448e-02 2.020330e-01 
3.721622e-02 1.328868e-02 2.088940e-01 
-4.551792e-03 -2.681273e-02 1.897060e-01 
3.955350e-02 1.648973e-02 2.075280e-01 
-6.104403e-03 -3.128608e-02 1.873330e-01 
3.479377e-02 4.433202e-02 1.980080e-01 
3.431747e-02 7.961122e-03 2.037350e-01 
-1.385597e-02 -4.173279e-02 1.822447e-01 
3.849419e-02 3.310097e-02 2.002970e-01 
2.324426e-02 4.188796e-03 1.953160e-01 
-1.715085e-02 -4.456854e-02 1.784207e-01 
4.068101e-02 1.550562e-02 2.029240e-01 
-8.683505e-03 -2.989950e-02 1.796904e-01 
4.029346e-02 3.046271e-02 1.986110e-01 
-1.887054e-02 -6.163719e-03 1.673818e-01 
3.674176e-02 4.204564e-02 1.929530e-01 
5.287218e-03 -2.851431e-03 1.808374e-01 
1.491879e-02 -1.882717e-03 1.856037e-01 
2.635935e-02 2.299214e-03 1.909040e-01 
-1.040235e-02 -3.842529e-02 1.744868e-01 
4.054455e-02 8.004513e-03 1.976770e-01 
-2.664200e-02 -1.336091e-02 1.579083e-01 
4.345605e-02 1.705579e-02 1.966060e-01 
-1.468018e-02 -1.074809e-02 1.638407e-01 
4.380842e-02 2.432441e-02 1.942540e-01 
-5.659268e-04 -9.288355e-03 1.714180e-01 
4.107561e-02 3.329493e-02 1.895700e-01 
7.795950e-03 -7.592566e-03 1.752836e-01 
1.356982e-02 -6.928967e-03 1.777098e-01 
3.787343e-02 4.386958e-02 1.830999e-01 
2.196270e-02 -4.354184e-03 1.814555e-01 
-1.508528e-02 -4.683973e-02 1.649429e-01 
2.975749e-02 -1.609008e-03 1.847993e-01 
-1.204465e-02 -3.730446e-02 1.637880e-01 
4.249101e-02 2.785448e-03 1.910330e-01 
-1.860044e-02 -2.379014e-02 1.555729e-01 
4.617421e-02 9.387905e-03 1.909560e-01 
-9.811450e-03 -1.979315e-02 1.592824e-01 
4.767995e-02 1.709254e-02 1.892360e-01 
1.280140e-03 -1.692640e-02 1.647493e-01 
4.558475e-02 2.462413e-02 1.851930e-01 
6.960384e-03 -1.504264e-02 1.669005e-01 
4.512197e-02 2.924264e-02 1.828036e-01 
1.305332e-02 -1.339162e-02 1.693837e-01 
4.421278e-02 3.413109e-02 1.800578e-01 
1.953895e-02 -1.197240e-02 1.721877e-01 
2.381564e-02 -1.065383e-02 1.735711e-01 
-1.967548e-02 -5.217444e-02 1.522609e-01 
2.805772e-02 -9.345858e-03 1.749432e-01 
-1.710825e-02 -4.987194e-02 1.522737e-01 
3.226584e-02 -8.048450e-03 1.763044e-01 
-1.556236e-02 -4.718799e-02 1.515320e-01 
3.733510e-02 -7.184051e-03 1.783372e-01 
-1.322016e-02 -4.373629e-02 1.511603e-01 
4.174161e-02 -4.995384e-03 1.796647e-01 
-1.138528e-02 -4.009054e-02 1.504111e-01 
4.737007e-02 -3.131457e-04 1.812951e-01 
-7.175481e-03 -3.416335e-02 1.507719e-01 
4.976836e-02 1.535745e-02 1.784724e-01 
2.484071e-02 -1.680041e-02 1.673728e-01 
3.954258e-02 -9.798654e-03 1.746027e-01 
-1.172735e-02 -4.728438e-02 1.468371e-01 
4.592121e-02 -4.372510e-03 1.765971e-01 
-6.720196e-03 -4.056932e-02 1.475779e-01 
4.891635e-02 1.592976e-03 1.762066e-01 
-1.616497e-03 -3.717125e-02 1.490937e-01 
5.032685e-02 7.298595e-03 1.748008e-01 
3.157334e-03 -3.475580e-02 1.506047e-01 
5.075468e-02 1.141597e-02 1.730632e-01 
1.087439e-02 -3.147101e-02 1.539404e-01 
5.035749e-02 1.280320e-02 1.713414e-01 
1.029043e-02 -3.222140e-02 1.525029e-01 
5.028447e-02 1.191286e-02 1.703217e-01 
9.901393e-03 -3.412384e-02 1.514414e-01 
5.081229e-02 9.659462e-03 1.700017e-01 
1.152765e-02 -3.472912e-02 1.514787e-01 
5.041431e-02 1.104598e-02 1.682704e-01 
1.591078e-02 -3.329414e-02 1.529712e-01 
4.968742e-02 1.472953e-02 1.658159e-01 
1.780362e-02 -3.295471e-02 1.529983e-01 
5.016814e-02 1.567781e-02 1.647716e-01 
2.091586e-02 -3.207479e-02 1.537519e-01 
5.032216e-02 1.893063e-02 1.630040e-01 
2.568955e-02 -3.086200e-02 1.555869e-01 
5.080453e-02 1.988432e-02 1.619550e-01 
2.680807e-02 -3.126413e-02 1.552546e-01 
5.056729e-02 2.014649e-02 1.605564e-01 
2.597152e-02 -3.294062e-02 1.538453e-01 
5.065777e-02 1.809637e-02 1.598836e-01 
2.222951e-02 -3.551282e-02 1.506087e-01 
5.107566e-02 1.374222e-02 1.599394e-01 
2.185193e-02 -3.740192e-02 1.495546e-01 
5.116608e-02 1.169486e-02 1.592675e-01 
2.147384e-02 -3.929360e-02 1.484991e-01 
5.125648e-02 9.647468e-03 1.585956e-01 
2.062367e-02 -4.099376e-02 1.470698e-01 
5.134688e-02 7.600076e-03 1.579237e-01 
2.175489e-02 -4.139228e-02 1.467406e-01 
5.199326e-02 7.399792e-03 1.572365e-01 
3.054405e-02 -3.548792e-02 1.504082e-01 
5.116874e-02 1.757698e-02 1.532346e-01 
3.710095e-02 -2.981262e-02 1.525741e-01 
4.780717e-02 2.814143e-02 1.473465e-01 
4.475819e-02 -2.367773e-02 1.554282e-01 
4.973913e-02 -1.115875e-02 1.549928e-01 
2.354694e-02 -4.391530e-02 1.424986e-01 
5.290821e-02 5.436660e-03 1.523708e-01 
3.732904e-02 -3.168784e-02 1.483566e-01 
4.806671e-02 2.640818e-02 1.430772e-01 
4.784653e-02 -1.945200e-02 1.519178e-01 
1.188493e-02 -5.078422e-02 1.320503e-01 
5.178627e-02 -5.352112e-03 1.503882e-01 
3.040235e-02 -4.118016e-02 1.419078e-01 
5.292161e-02 1.129653e-02 1.462795e-01 
4.151402e-02 -2.896755e-02 1.459195e-01 
4.639842e-02 3.228040e-02 1.356949e-01 
4.900151e-02 -1.324204e-02 1.465599e-01 
2.460139e-02 -4.495074e-02 1.349223e-01 
5.230595e-02 5.547073e-03 1.435054e-01 
4.036568e-02 -3.137703e-02 1.420058e-01 
4.844371e-02 2.833193e-02 1.343680e-01 
4.788168e-02 -1.559162e-02 1.426590e-01 
2.070745e-02 -4.745325e-02 1.289661e-01 
5.269662e-02 1.429200e-03 1.410811e-01 
3.681214e-02 -3.488980e-02 1.365705e-01 
4.991399e-02 2.250277e-02 1.330604e-01 
4.680961e-02 -2.117583e-02 1.395042e-01 
6.971605e-03 -5.155878e-02 1.161419e-01 
5.168180e-02 -7.365348e-03 1.386925e-01 
2.671227e-02 -4.428418e-02 1.276464e-01 
5.270885e-02 7.312451e-03 1.348705e-01 
3.789392e-02 -3.397129e-02 1.322364e-01 
4.921929e-02 2.454678e-02 1.271393e-01 
4.689669e-02 -2.189384e-02 1.348449e-01 
6.422025e-03 -5.222171e-02 1.107926e-01 
5.223283e-02 -8.251568e-03 1.344092e-01 
2.329884e-02 -4.584747e-02 1.204956e-01 
5.269864e-02 4.577845e-03 1.305689e-01 
3.495729e-02 -3.773756e-02 1.259853e-01 
5.090514e-02 1.872954e-02 1.247391e-01 
4.215724e-02 -3.007648e-02 1.283024e-01 
4.711829e-02 3.196507e-02 1.176216e-01 
4.685138e-02 -2.031609e-02 1.282850e-01 
5.018085e-02 -9.937230e-03 1.271115e-01 
1.778956e-02 -4.763956e-02 1.104839e-01 
5.351488e-02 4.559112e-04 1.259362e-01 
3.200036e-02 -4.040903e-02 1.181429e-01 
5.217959e-02 1.436543e-02 1.204472e-01 
4.105344e-02 -3.022830e-02 1.212843e-01 
4.788396e-02 3.120371e-02 1.120338e-01 
4.817069e-02 -1.935109e-02 1.228258e-01 
1.028548e-02 -5.318609e-02 1.010066e-01 
5.117765e-02 -6.605877e-03 1.208450e-01 
2.553856e-02 -4.502137e-02 1.092924e-01 
5.238455e-02 7.107370e-03 1.172733e-01 
3.585083e-02 -3.626409e-02 1.137432e-01 
5.148648e-02 2.095799e-02 1.120655e-01 
4.115091e-02 -2.983538e-02 1.149698e-01 
4.661730e-02 3.266044e-02 1.043371e-01 
4.342946e-02 -2.643168e-02 1.146273e-01 
4.471629e-02 3.838300e-02 1.002488e-01 
4.627869e-02 -2.112673e-02 1.142695e-01 
4.878344e-02 -1.349413e-02 1.130969e-01 
1.170669e-02 -5.115435e-02 9.246380e-02 
5.186637e-02 -3.942341e-03 1.119069e-01 
2.673138e-02 -4.394691e-02 1.009374e-01 
5.233886e-02 9.153057e-03 1.078685e-01 
3.691030e-02 -3.398416e-02 1.050715e-01 
4.894176e-02 2.556956e-02 1.000493e-01 
4.582542e-02 -2.260334e-02 1.079147e-01 
3.366604e-03 -5.325223e-02 8.125990e-02 
5.219086e-02 -9.104553e-03 1.082983e-01 
2.324755e-02 -4.553988e-02 9.342940e-02 
5.278624e-02 6.133056e-03 1.038082e-01 
3.790844e-02 -3.517637e-02 1.009722e-01 
4.997320e-02 2.449459e-02 9.590740e-02 
4.660591e-02 -1.928741e-02 1.025850e-01 
1.404181e-02 -5.050498e-02 8.352950e-02 
5.340582e-02 -2.635659e-03 1.025473e-01 
3.681530e-02 -3.555445e-02 9.632190e-02 
5.032642e-02 2.362657e-02 9.247360e-02 
4.886049e-02 -1.563494e-02 9.958000e-02 
2.217760e-02 -4.581157e-02 8.475160e-02 
5.286752e-02 5.765785e-03 9.619930e-02 
4.125250e-02 -3.174883e-02 9.495610e-02 
4.394479e-02 3.319129e-02 8.118460e-02 
5.054089e-02 -1.390096e-02 9.658270e-02 
2.533312e-02 -4.468089e-02 8.296840e-02 
5.224996e-02 8.709407e-03 9.107480e-02 
4.351549e-02 -2.808818e-02 9.191920e-02 
4.096813e-02 3.991531e-02 7.316600e-02 
5.234665e-02 -1.001006e-02 9.314160e-02 
2.907713e-02 -4.158161e-02 8.117150e-02 
5.268008e-02 1.339592e-02 8.631200e-02 
4.473152e-02 -2.614912e-02 8.846490e-02 
8.151946e-03 -5.092064e-02 6.413860e-02 
5.167626e-02 -3.780499e-03 8.712960e-02 
3.359516e-02 -3.770739e-02 7.980590e-02 
5.153593e-02 2.008428e-02 7.975980e-02 
4.817920e-02 -1.857456e-02 8.537560e-02 
2.278407e-02 -4.755886e-02 7.091690e-02 
5.281458e-02 4.996689e-03 8.188200e-02 
4.195933e-02 -2.998343e-02 8.058070e-02 
4.421345e-02 3.596818e-02 6.587980e-02 
5.129218e-02 -8.582031e-03 8.139840e-02 
3.276575e-02 -4.030397e-02 7.308000e-02 
5.221189e-02 1.704495e-02 7.436600e-02 
4.790125e-02 -2.126354e-02 7.918400e-02 
2.299080e-02 -4.843668e-02 6.450140e-02 
5.361361e-02 4.126092e-03 7.607080e-02 
4.247631e-02 -2.641317e-02 7.340210e-02 
1.430243e-02 -5.048803e-02 5.520270e-02 
5.397726e-02 -1.434042e-03 7.509060e-02 
4.123607e-02 -3.014639e-02 7.063920e-02 
4.397932e-02 3.606992e-02 5.605140e-02 
5.229827e-02 -4.869625e-03 7.190140e-02 
3.735261e-02 -3.723155e-02 6.655210e-02 
4.829023e-02 2.474435e-02 5.970580e-02 
4.947722e-02 -1.566787e-02 6.964110e-02 
2.711307e-02 -4.514284e-02 5.741710e-02 
5.258300e-02 1.013727e-02 6.423090e-02 
4.474486e-02 -2.564117e-02 6.558320e-02 
1.250377e-02 -5.164289e-02 4.423550e-02 
5.210748e-02 -1.896348e-03 6.420010e-02 
3.773525e-02 -3.586126e-02 5.967710e-02 
4.533699e-02 2.825105e-02 4.944390e-02 
4.944446e-02 -1.397466e-02 6.237460e-02 
2.974208e-02 -4.361057e-02 5.227210e-02 
5.143876e-02 1.372497e-02 5.549100e-02 
4.300599e-02 -2.776150e-02 5.783750e-02 
4.849528e-02 -1.205588e-02 5.696460e-02 
1.771719e-02 -4.990728e-02 3.964810e-02 
5.256052e-02 4.362967e-03 5.471200e-02 
3.614932e-02 -3.807307e-02 5.062400e-02 
4.721155e-02 2.467118e-02 4.352750e-02 
4.446913e-02 -2.577098e-02 5.301450e-02 
-2.628590e-03 -5.690564e-02 2.004890e-02 
5.015158e-02 -1.124476e-02 5.261010e-02 
1.965745e-02 -4.813503e-02 3.512960e-02 
5.345253e-02 4.451031e-03 4.988600e-02 
3.601454e-02 -3.768963e-02 4.481350e-02 
4.761385e-02 2.507887e-02 3.810780e-02 
4.612147e-02 -2.498743e-02 4.863870e-02 
4.478103e-03 -5.589632e-02 1.996820e-02 
5.224086e-02 -7.201491e-03 4.774470e-02 
3.215396e-02 -4.151909e-02 3.830740e-02 
5.113591e-02 1.781338e-02 3.877070e-02 
4.816433e-02 -2.219851e-02 4.544300e-02 
1.871859e-02 -4.967628e-02 2.612350e-02 
5.275839e-02 3.292674e-03 4.118840e-02 
4.059718e-02 -3.231429e-02 3.883310e-02 
4.488739e-02 3.463582e-02 2.465330e-02 
4.944243e-02 -1.100935e-02 3.933070e-02 
2.978197e-02 -4.359250e-02 2.968740e-02 
5.183114e-02 1.467526e-02 3.309220e-02 
4.624310e-02 -2.309516e-02 3.697460e-02 
1.860255e-02 -5.163037e-02 1.928680e-02 
5.327718e-02 1.379062e-03 3.506090e-02 
4.081684e-02 -2.966002e-02 3.118800e-02 
1.765950e-02 -5.229634e-02 1.572220e-02 
5.390654e-02 1.686290e-04 3.308260e-02 
4.444247e-02 -2.647754e-02 3.061690e-02 
2.563165e-02 -4.838906e-02 1.868990e-02 
5.377851e-02 7.504421e-03 2.811890e-02 
4.909608e-02 -1.801556e-02 2.951890e-02 
3.634954e-02 -3.881090e-02 2.256180e-02 
5.011386e-02 2.389163e-02 1.755450e-02 
5.412633e-02 -2.779931e-03 2.690640e-02 
4.707932e-02 -2.139001e-02 2.434570e-02 
3.942215e-02 -3.640692e-02 2.025180e-02 
2.720817e-02 -4.745449e-02 1.101720e-02 
5.448588e-02 9.169250e-03 1.960640e-02 
5.327732e-02 -3.016192e-03 2.043320e-02 
5.184164e-02 -1.037892e-02 1.973350e-02 
5.096591e-02 -1.217770e-02 1.799370e-02 
5.150045e-02 -1.114500e-02 1.672440e-02 
5.375503e-02 -6.254316e-03 1.592100e-02 
4.167850e-02 -3.668506e-02 1.062010e-02 
5.246417e-02 -1.463923e-02 1.269890e-02 
1.311861e-02 3.572428e-02 2.455190e-01 
7.270091e-04 1.659020e-02 2.400970e-01 
1.777472e-02 2.728231e-02 2.438790e-01 
1.308527e-02 1.728835e-02 2.420580e-01 
1.894277e-02 1.792922e-02 2.417810e-01 
2.231655e-03 1.313273e-02 2.322640e-01 
2.460550e-02 3.361856e-02 2.373200e-01 
-3.228984e-03 1.273902e-02 2.262910e-01 
1.748821e-02 1.292406e-02 2.360840e-01 
2.833996e-02 2.098403e-02 2.385440e-01 
2.432740e-02 3.575429e-02 2.312940e-01 
2.159722e-02 3.333926e-02 2.294470e-01 
2.292436e-02 2.781674e-02 2.306150e-01 
2.017751e-02 2.423726e-02 2.290790e-01 
1.822297e-02 1.889329e-02 2.284530e-01 
5.819987e-03 1.534510e-02 2.217260e-01 
8.386299e-04 5.118135e-03 2.208260e-01 
-7.165213e-03 -5.375327e-03 2.183720e-01 
2.359342e-02 2.701119e-02 2.247810e-01 
1.620066e-02 1.757436e-02 2.223640e-01 
4.515162e-03 7.600475e-03 2.177620e-01 
-2.196053e-03 -7.200690e-03 2.172110e-01 
2.967138e-02 3.799533e-02 2.217450e-01 
2.340009e-02 2.074893e-02 2.221380e-01 
6.332670e-03 1.129809e-02 2.144250e-01 
-4.086154e-04 -8.119957e-03 2.151700e-01 
3.103826e-02 3.740143e-02 2.194160e-01 
2.307976e-02 1.791951e-02 2.195270e-01 
7.230251e-03 4.056748e-03 2.136950e-01 
-5.500361e-03 -1.586452e-02 2.112940e-01 
3.056301e-02 2.650608e-02 2.190210e-01 
8.907189e-03 1.122149e-02 2.103670e-01 
-2.150127e-03 -1.448274e-02 2.105460e-01 
3.263667e-02 2.988675e-02 2.170270e-01 
1.307601e-02 1.196150e-02 2.102590e-01 
-2.676129e-03 -1.623901e-02 2.085540e-01 
3.378869e-02 2.812952e-02 2.160010e-01 
4.906211e-03 1.105419e-02 2.037610e-01 
-8.402580e-03 -2.145551e-02 2.046570e-01 
3.409080e-02 2.469178e-02 2.149920e-01 
9.407989e-03 -4.653899e-03 2.086250e-01 
-1.243105e-02 -2.670423e-02 2.016980e-01 
3.354474e-02 1.957678e-02 2.139990e-01 
1.012899e-02 -1.067369e-02 2.085830e-01 
-1.693971e-02 -3.056564e-02 1.980460e-01 
2.972430e-02 1.344058e-02 2.114620e-01 
2.384079e-03 -1.439707e-02 2.030920e-01 
3.578928e-02 3.949263e-02 2.061380e-01 
2.388641e-02 1.105446e-02 2.066650e-01 
-4.192807e-03 -2.362057e-02 1.998490e-01 
3.874564e-02 2.801661e-02 2.089910e-01 
1.269418e-03 9.985083e-03 1.918940e-01 
-1.832733e-02 -3.508548e-02 1.929410e-01 
2.483017e-02 9.588907e-03 2.043170e-01 
-5.426293e-03 -2.829603e-02 1.971650e-01 
3.697364e-02 1.463662e-02 2.086530e-01 
4.028293e-02 2.626847e-02 2.059870e-01 
-1.090517e-02 7.035279e-03 1.812173e-01 
3.881009e-02 4.065623e-02 1.997430e-01 
9.064430e-03 6.236240e-03 1.917960e-01 
-1.573179e-02 -3.637427e-02 1.891270e-01 
2.612700e-02 6.957676e-03 2.002930e-01 
-7.204474e-03 -3.135893e-02 1.914110e-01 
3.455669e-02 9.014930e-03 2.034360e-01 
-1.376159e-03 -2.815239e-02 1.926890e-01 
3.971008e-02 1.342106e-02 2.039900e-01 
4.290813e-02 2.046204e-02 2.026180e-01 
-1.394252e-02 1.369441e-03 1.741718e-01 
4.137430e-02 3.126257e-02 1.973490e-01 
-1.231153e-03 2.309166e-03 1.801353e-01 
1.286837e-02 3.188053e-03 1.869603e-01 
-1.457077e-02 -4.008653e-02 1.829058e-01 
2.363501e-02 3.818424e-03 1.919410e-01 
-1.086974e-02 -3.658536e-02 1.828608e-01 
3.375785e-02 4.730101e-03 1.964830e-01 
-6.300464e-03 -3.135134e-02 1.828005e-01 
4.134277e-02 8.526956e-03 1.986710e-01 
4.405695e-02 1.243946e-02 1.979610e-01 
-2.052110e-02 -5.539997e-03 1.641485e-01 
4.559589e-02 1.725838e-02 1.962760e-01 
-1.165932e-02 -5.349541e-03 1.681554e-01 
4.477811e-02 2.394274e-02 1.926150e-01 
-6.081094e-03 -5.424979e-03 1.703135e-01 
4.431577e-02 2.922375e-02 1.895840e-01 
5.591518e-03 -4.978820e-03 1.759553e-01 
3.420597e-02 4.715226e-02 1.768817e-01 
1.658743e-02 -1.919740e-03 1.804118e-01 
-1.847161e-02 -4.292759e-02 1.710126e-01 
2.982019e-02 -6.967238e-04 1.868015e-01 
-2.685582e-02 -1.770466e-02 1.569535e-01 
4.278144e-02 3.904012e-03 1.920090e-01 
-1.517244e-02 -1.201785e-02 1.610003e-01 
4.766816e-02 1.319905e-02 1.909220e-01 
2.508842e-03 -9.446372e-03 1.696586e-01 
4.631041e-02 2.863697e-02 1.841489e-01 
1.487483e-02 -7.212848e-03 1.752545e-01 
2.062782e-02 -5.249585e-03 1.769598e-01 
2.545704e-02 -5.029528e-03 1.786643e-01 
-1.281589e-02 -4.249979e-02 1.660555e-01 
3.232946e-02 -3.974951e-03 1.813593e-01 
-1.495247e-02 -3.414526e-02 1.609295e-01 
3.953959e-02 -2.083435e-03 1.840108e-01 
-1.711636e-02 -2.683922e-02 1.560994e-01 
4.426025e-02 3.967791e-04 1.849700e-01 
-1.377490e-02 -2.177723e-02 1.553353e-01 
4.859436e-02 4.294683e-03 1.852496e-01 
-9.059166e-03 -2.117555e-02 1.568345e-01 
4.968474e-02 7.123084e-03 1.838832e-01 
-6.178969e-03 -2.177510e-02 1.575980e-01 
4.992242e-02 8.261561e-03 1.825282e-01 
-6.358150e-04 -2.058188e-02 1.594368e-01 
5.027066e-02 1.285733e-02 1.801331e-01 
2.645215e-03 -2.029417e-02 1.601794e-01 
5.015379e-02 1.547009e-02 1.780783e-01 
7.669037e-03 -1.882645e-02 1.616292e-01 
4.852457e-02 2.166721e-02 1.739297e-01 
1.825669e-02 -1.648330e-02 1.662609e-01 
3.078155e-02 -1.102581e-02 1.711174e-01 
-1.684333e-02 -4.872032e-02 1.524405e-01 
3.925691e-02 -9.940860e-03 1.748879e-01 
-1.395590e-02 -4.691273e-02 1.524529e-01 
3.738151e-02 -1.080734e-02 1.728414e-01 
-1.560263e-02 -4.819476e-02 1.506316e-01 
3.673994e-02 -1.139657e-02 1.714715e-01 
-1.271489e-02 -4.638665e-02 1.506465e-01 
4.393523e-02 -9.451966e-03 1.741942e-01 
-8.492356e-03 -3.956801e-02 1.498707e-01 
4.875773e-02 -3.520752e-03 1.741392e-01 
-2.924462e-03 -3.360253e-02 1.502221e-01 
5.157409e-02 2.724733e-03 1.727194e-01 
8.787030e-03 -2.815243e-02 1.546309e-01 
5.085942e-02 1.170708e-02 1.681680e-01 
1.508650e-02 -2.518543e-02 1.564493e-01 
5.168766e-02 1.840323e-02 1.653275e-01 
2.472713e-02 -2.221636e-02 1.604001e-01 
4.980032e-02 2.975406e-02 1.592219e-01 
3.335548e-02 -1.987764e-02 1.639356e-01 
-1.379724e-02 -5.001773e-02 1.426451e-01 
3.983754e-02 -1.615417e-02 1.656639e-01 
-6.376617e-03 -4.627504e-02 1.449255e-01 
4.665556e-02 -1.275181e-02 1.677242e-01 
-3.706419e-04 -4.174238e-02 1.460509e-01 
4.990980e-02 -5.642311e-03 1.662835e-01 
6.909380e-03 -3.807902e-02 1.482921e-01 
5.159677e-02 2.675021e-03 1.634315e-01 
1.410938e-02 -3.445585e-02 1.505086e-01 
5.286273e-02 1.019711e-02 1.605641e-01 
2.207574e-02 -3.143271e-02 1.534332e-01 
5.207211e-02 1.697872e-02 1.566081e-01 
2.654192e-02 -2.965767e-02 1.545293e-01 
5.163463e-02 2.233799e-02 1.533423e-01 
3.139064e-02 -2.817483e-02 1.559795e-01 
4.754212e-02 3.065596e-02 1.467042e-01 
3.660738e-02 -2.698357e-02 1.577764e-01 
4.059858e-02 -2.382362e-02 1.581235e-01 
-6.168418e-03 -5.172123e-02 1.358558e-01 
4.630675e-02 -1.723836e-02 1.584383e-01 
6.088058e-03 -4.749239e-02 1.412027e-01 
5.005105e-02 -8.079256e-03 1.566029e-01 
1.897676e-02 -4.044990e-02 1.460368e-01 
5.313621e-02 5.211403e-03 1.529294e-01 
3.415171e-02 -3.177852e-02 1.518435e-01 
4.621244e-02 -2.020372e-02 1.546411e-01 
1.339552e-02 -4.713249e-02 1.409988e-01 
5.221636e-02 -4.402026e-03 1.520161e-01 
3.086984e-02 -3.626869e-02 1.476131e-01 
5.155753e-02 1.916864e-02 1.423199e-01 
4.467818e-02 -2.345213e-02 1.511621e-01 
1.175559e-02 -4.822214e-02 1.366157e-01 
5.116788e-02 -5.590651e-03 1.481366e-01 
3.013321e-02 -3.899777e-02 1.444409e-01 
5.207045e-02 1.558664e-02 1.402406e-01 
4.145234e-02 -2.789025e-02 1.469461e-01 
4.765995e-03 -5.187427e-02 1.295122e-01 
4.912497e-02 -1.201307e-02 1.453783e-01 
2.639458e-02 -4.327266e-02 1.397781e-01 
5.326921e-02 7.828163e-03 1.400689e-01 
4.033304e-02 -3.031214e-02 1.434148e-01 
2.172555e-03 -5.245244e-02 1.242298e-01 
4.886615e-02 -1.381537e-02 1.422022e-01 
2.566474e-02 -4.488437e-02 1.361806e-01 
5.261399e-02 6.358682e-03 1.364771e-01 
3.876817e-02 -3.361897e-02 1.398722e-01 
4.596941e-02 -2.085566e-02 1.390599e-01 
1.050349e-02 -5.027344e-02 1.240902e-01 
5.233062e-02 -8.669316e-03 1.378799e-01 
2.687971e-02 -4.417759e-02 1.318364e-01 
5.349775e-02 7.514005e-03 1.317564e-01 
3.830532e-02 -3.407905e-02 1.348321e-01 
4.980228e-02 2.915127e-02 1.203689e-01 
4.638349e-02 -2.067584e-02 1.343880e-01 
1.435818e-02 -4.887511e-02 1.212097e-01 
5.207926e-02 -4.327096e-03 1.312698e-01 
2.983547e-02 -4.225066e-02 1.282271e-01 
5.325198e-02 1.201032e-02 1.250400e-01 
3.913770e-02 -3.306554e-02 1.301187e-01 
4.525337e-02 3.476792e-02 1.101902e-01 
4.503055e-02 -2.400582e-02 1.297155e-01 
2.670524e-04 -5.175327e-02 1.074528e-01 
4.929522e-02 -1.378619e-02 1.277741e-01 
1.708004e-02 -4.786772e-02 1.164218e-01 
5.402193e-02 -2.643088e-03 1.258168e-01 
2.955007e-02 -4.163080e-02 1.215749e-01 
5.391263e-02 1.230301e-02 1.191318e-01 
3.973373e-02 -3.296177e-02 1.242885e-01 
4.800819e-02 3.347202e-02 1.061500e-01 
4.653906e-02 -2.210200e-02 1.238719e-01 
8.444567e-03 -5.168820e-02 1.066863e-01 
5.130866e-02 -9.772009e-03 1.215030e-01 
2.290617e-02 -4.527277e-02 1.132072e-01 
5.407503e-02 4.168892e-03 1.171407e-01 
3.452238e-02 -3.617009e-02 1.167880e-01 
5.198001e-02 2.340460e-02 1.074288e-01 
4.390638e-02 -2.577213e-02 1.183468e-01 
6.553042e-05 -5.348611e-02 9.627150e-02 
4.906446e-02 -1.487247e-02 1.167532e-01 
1.613086e-02 -4.898675e-02 1.046741e-01 
5.260582e-02 -2.725056e-03 1.135578e-01 
2.610251e-02 -4.335835e-02 1.083879e-01 
5.404641e-02 8.678912e-03 1.091360e-01 
3.726920e-02 -3.514246e-02 1.120209e-01 
5.189413e-02 2.689225e-02 9.965030e-02 
4.501026e-02 -2.356816e-02 1.120022e-01 
8.779204e-03 -5.130359e-02 9.511400e-02 
5.158217e-02 -8.746468e-03 1.099569e-01 
2.865968e-02 -4.229298e-02 1.046853e-01 
5.334517e-02 1.236012e-02 1.021500e-01 
4.300502e-02 -2.664534e-02 1.078828e-01 
9.806930e-03 -5.053631e-02 9.163270e-02 
5.185119e-02 -7.303715e-03 1.057820e-01 
3.235833e-02 -3.966534e-02 1.025003e-01 
5.249793e-02 1.856447e-02 9.535240e-02 
4.633492e-02 -2.137057e-02 1.044735e-01 
1.987564e-02 -4.701380e-02 9.363870e-02 
5.364472e-02 1.678971e-03 9.986800e-02 
3.874630e-02 -3.282825e-02 1.006885e-01 
1.449252e-04 -5.154020e-02 7.839310e-02 
4.979397e-02 -1.248174e-02 9.978710e-02 
2.982674e-02 -4.235459e-02 9.518860e-02 
5.384160e-02 1.329218e-02 9.175590e-02 
4.610238e-02 -2.181974e-02 9.801800e-02 
2.177559e-02 -4.541959e-02 8.784920e-02 
5.315485e-02 5.319485e-03 9.163480e-02 
4.205112e-02 -2.849994e-02 9.497720e-02 
1.491521e-02 -4.939491e-02 8.167610e-02 
5.205481e-02 -2.308632e-03 9.109100e-02 
3.976901e-02 -3.279347e-02 9.231670e-02 
8.423215e-03 -5.129318e-02 7.494240e-02 
5.103708e-02 -7.491592e-03 8.968500e-02 
3.665239e-02 -3.533742e-02 8.836160e-02 
4.115179e-04 -5.236984e-02 6.672320e-02 
5.001928e-02 -1.267448e-02 8.827900e-02 
3.302275e-02 -4.001193e-02 8.481940e-02 
5.300775e-02 1.929910e-02 7.693510e-02 
4.991529e-02 -1.604480e-02 8.685680e-02 
3.164498e-02 -4.134929e-02 8.165310e-02 
5.252003e-02 1.745354e-02 7.459490e-02 
4.721764e-02 -2.003407e-02 8.373630e-02 
2.214137e-02 -4.720063e-02 7.413320e-02 
5.296891e-02 4.661225e-03 7.717620e-02 
3.991001e-02 -3.316066e-02 8.067930e-02 
-3.978955e-03 -5.174897e-02 5.356210e-02 
5.061576e-02 -1.465154e-02 8.021480e-02 
2.637825e-02 -4.479074e-02 7.233610e-02 
5.422149e-02 9.279555e-03 7.229530e-02 
4.238129e-02 -2.961767e-02 7.715750e-02 
3.248131e-03 -5.100089e-02 5.455180e-02 
