# .PCD v.6 - Point Cloud Data file format
FIELDS x y z 
SIZE 4 4 4 
TYPE F F F 
COUNT 1 1 1 
WIDTH 1172
HEIGHT 1
POINTS 1172
DATA ascii
-3.936576e-02 -3.301985e-02 1.100479e-02 
-7.279224e-03 -3.054117e-02 8.789012e-03 
2.214073e-02 -2.763472e-02 9.789003e-03 
4.283895e-02 -2.078956e-02 3.345832e-02 
-3.687028e-02 -3.180159e-02 1.047799e-02 
-4.876919e-03 -2.934896e-02 8.275171e-03 
2.416532e-02 -2.635954e-02 9.909700e-03 
4.515722e-02 -1.961696e-02 3.291055e-02 
-4.199764e-02 -3.113592e-02 1.062041e-02 
-1.047723e-02 -2.847850e-02 9.687511e-03 
1.968460e-02 -2.580470e-02 9.415371e-03 
4.637237e-02 -2.225907e-02 1.476720e-02 
-1.849568e-02 -2.828866e-02 8.868591e-03 
1.128207e-02 -2.539616e-02 9.874022e-03 
3.991420e-02 -2.248027e-02 1.147604e-02 
5.787395e-02 -1.449488e-02 4.153354e-02 
-2.636052e-02 -2.768977e-02 9.869687e-03 
4.959181e-03 -2.521850e-02 8.322673e-03 
3.344794e-02 -2.219149e-02 1.057622e-02 
5.102146e-02 -1.459975e-02 3.885919e-02 
-3.791466e-02 -2.693825e-02 1.306421e-02 
-3.176536e-03 -2.542448e-02 5.708972e-03 
2.488158e-02 -2.217297e-02 9.256750e-03 
4.501645e-02 -1.504852e-02 3.420985e-02 
-4.801848e-02 -2.713455e-02 1.115735e-02 
-1.591760e-02 -2.464201e-02 9.567854e-03 
1.413234e-02 -2.191147e-02 9.929402e-03 
4.213429e-02 -1.882657e-02 1.278253e-02 
6.214286e-02 -1.104772e-02 4.077668e-02 
-2.948699e-02 -2.414915e-02 1.231736e-02 
3.624856e-03 -2.227550e-02 7.539916e-03 
3.215164e-02 -1.928464e-02 9.805324e-03 
5.620287e-02 -1.095541e-02 3.863406e-02 
-3.931749e-02 -2.391663e-02 1.226375e-02 
-5.497597e-03 -2.214779e-02 6.826403e-03 
2.327310e-02 -1.914544e-02 9.110968e-03 
5.046606e-02 -1.588769e-02 1.320907e-02 
-4.741441e-02 -2.423586e-02 8.932473e-03 
-1.705775e-02 -2.124515e-02 1.059784e-02 
1.245258e-02 -1.833795e-02 1.221684e-02 
4.115153e-02 -1.551063e-02 1.379120e-02 
6.318169e-02 -7.951368e-03 3.975775e-02 
-3.431916e-02 -2.150399e-02 1.120486e-02 
-1.354160e-03 -1.957156e-02 7.075433e-03 
2.702229e-02 -1.649553e-02 9.982546e-03 
5.498096e-02 -1.360714e-02 1.219518e-02 
-5.043051e-02 -2.317099e-02 4.853813e-03 
-2.178349e-02 -1.963923e-02 9.791292e-03 
8.173854e-03 -1.686114e-02 1.078761e-02 
3.755334e-02 -1.427646e-02 1.112687e-02 
5.981801e-02 -6.822550e-03 3.640879e-02 
-4.095946e-02 -2.027670e-02 9.309992e-03 
-1.109472e-02 -1.723479e-02 1.161068e-02 
1.859653e-02 -1.450195e-02 1.257657e-02 
4.799329e-02 -1.207666e-02 1.226147e-02 
6.804361e-02 -4.216018e-03 4.018656e-02 
-3.100564e-02 -1.804261e-02 1.060989e-02 
8.797258e-04 -1.584333e-02 8.404679e-03 
2.984245e-02 -1.304011e-02 1.003754e-02 
5.774468e-02 -1.019837e-02 1.224788e-02 
-2.225424e-02 -1.644641e-02 9.532311e-03 
7.098709e-03 -1.348215e-02 1.180965e-02 
3.684915e-02 -1.105899e-02 1.150497e-02 
6.191267e-02 -7.079581e-03 1.995921e-02 
-4.657057e-02 -1.737970e-02 9.492423e-03 
-1.618060e-02 -1.448161e-02 1.115232e-02 
1.273621e-02 -1.143073e-02 1.404489e-02 
4.208887e-02 -8.924994e-03 1.433507e-02 
6.313880e-02 -2.591375e-03 3.484644e-02 
-4.477753e-02 -1.594435e-02 1.027268e-02 
-1.407623e-02 -1.318392e-02 1.127511e-02 
1.510386e-02 -1.026937e-02 1.352439e-02 
4.409315e-02 -7.667038e-03 1.445212e-02 
6.548518e-02 -8.905762e-04 3.677611e-02 
-4.225879e-02 -1.474465e-02 9.743816e-03 
-1.164065e-02 -1.200609e-02 1.075270e-02 
1.715589e-02 -8.992828e-03 1.364370e-02 
4.552685e-02 -6.172986e-03 1.583111e-02 
6.667582e-02 7.467434e-04 3.883777e-02 
-4.010782e-02 -1.343004e-02 9.869253e-03 
-9.212229e-03 -1.083179e-02 1.023170e-02 
1.951179e-02 -7.837580e-03 1.312501e-02 
4.893641e-02 -5.514547e-03 1.280081e-02 
6.964966e-02 2.771910e-03 4.195806e-02 
-3.704473e-02 -1.192041e-02 1.053582e-02 
-5.233854e-03 -9.705589e-03 8.962112e-03 
2.365950e-02 -6.853745e-03 1.122857e-02 
5.180283e-02 -4.075958e-03 1.343637e-02 
6.960782e-02 3.779860e-03 4.166185e-02 
-3.836190e-02 -1.096040e-02 1.034284e-02 
-7.493492e-03 -8.400702e-03 1.069783e-02 
2.212326e-02 -5.799026e-03 1.167651e-02 
4.948620e-02 -2.667277e-03 1.577036e-02 
6.778634e-02 4.404658e-03 4.031303e-02 
-4.279382e-02 -1.047030e-02 9.176201e-03 
-1.281544e-02 -7.550791e-03 1.148552e-02 
1.729692e-02 -5.073573e-03 1.181889e-02 
4.479184e-02 -1.940700e-03 1.592304e-02 
6.582008e-02 3.879624e-03 3.399868e-02 
-4.945050e-02 -9.246586e-03 1.194640e-02 
-1.851843e-02 -6.571934e-03 1.292911e-02 
1.244222e-02 -4.344021e-03 1.196203e-02 
3.978049e-02 -1.086493e-03 1.671193e-02 
6.522380e-02 2.729886e-03 2.454116e-02 
-5.410881e-02 -9.194672e-03 8.909974e-03 
-2.449105e-02 -6.028240e-03 1.253926e-02 
7.297847e-03 -4.048636e-03 1.029678e-02 
3.531559e-02 -1.036751e-03 1.380152e-02 
-3.049959e-02 -5.481249e-03 1.214697e-02 
2.138197e-03 -3.752464e-03 8.626813e-03 
2.995960e-02 -6.157188e-04 1.278996e-02 
5.827441e-02 1.954978e-03 1.434860e-02 
7.500359e-02 9.836996e-03 4.267952e-02 
-3.746188e-02 -5.128481e-03 1.120986e-02 
-5.572840e-03 -3.029617e-03 9.620706e-03 
2.338845e-02 -2.595555e-04 1.188348e-02 
5.159634e-02 2.438488e-03 1.408748e-02 
7.264883e-02 1.072675e-02 4.264781e-02 
-4.042338e-02 -4.107324e-03 1.178627e-02 
-8.078790e-03 -2.147144e-03 9.539435e-03 
2.065215e-02 7.410223e-04 1.244355e-02 
4.811052e-02 3.810673e-03 1.654097e-02 
6.904497e-02 1.096852e-02 4.024481e-02 
-4.689849e-02 -3.423013e-03 1.204767e-02 
-1.431262e-02 -1.468337e-03 9.787691e-03 
1.491355e-02 1.295342e-03 1.205995e-02 
4.280193e-02 4.240723e-03 1.553904e-02 
6.978420e-02 7.246097e-03 1.956775e-02 
-5.230156e-02 -3.116642e-03 1.032813e-02 
-2.162471e-02 -4.024123e-04 1.198738e-02 
9.457131e-03 1.725947e-03 1.103405e-02 
3.747013e-02 4.672687e-03 1.453273e-02 
6.590901e-02 7.039708e-03 1.543864e-02 
-5.772115e-02 -2.809402e-03 8.603452e-03 
-2.797055e-02 2.896053e-04 1.224722e-02 
4.296910e-03 2.030790e-03 9.363846e-03 
3.211498e-02 5.106537e-03 1.352195e-02 
6.069234e-02 7.472385e-03 1.444449e-02 
7.871492e-02 1.610360e-02 4.514843e-02 
-3.365176e-02 7.279115e-04 1.119781e-02 
-2.833993e-03 3.107299e-03 1.153987e-02 
2.522619e-02 6.189239e-03 1.569841e-02 
5.434654e-02 8.423614e-03 1.596309e-02 
7.511106e-02 1.634537e-02 4.274544e-02 
-3.644500e-02 1.174265e-03 9.266247e-03 
-6.243367e-03 3.805706e-03 1.092685e-02 
2.189570e-02 6.884424e-03 1.509837e-02 
5.138902e-02 8.981273e-03 1.474132e-02 
6.999585e-02 1.606685e-02 3.863317e-02 
-4.288544e-02 1.876419e-03 9.517371e-03 
-1.247966e-02 4.507705e-03 1.118066e-02 
1.707531e-02 7.065302e-03 1.279735e-02 
4.552974e-02 9.683317e-03 1.500229e-02 
6.882729e-02 1.508457e-02 3.038604e-02 
-4.715874e-02 2.849824e-03 1.020404e-02 
-1.660104e-02 5.475135e-03 1.186256e-02 
1.372540e-02 7.763401e-03 1.219176e-02 
4.168866e-02 1.063974e-02 1.567686e-02 
6.794137e-02 1.398155e-02 2.161154e-02 
-4.849461e-02 3.829075e-03 1.000919e-02 
-1.789496e-02 6.442390e-03 1.167167e-02 
1.184522e-02 8.982366e-03 1.328753e-02 
4.018213e-02 1.171766e-02 1.613027e-02 
6.755751e-02 1.451922e-02 1.953482e-02 
-5.075693e-02 4.610837e-03 9.267415e-03 
-2.010207e-02 7.214975e-03 1.094169e-02 
8.739192e-03 1.014685e-02 1.450103e-02 
3.749071e-02 1.274150e-02 1.669804e-02 
6.495658e-02 1.553745e-02 2.010332e-02 
-4.507602e-02 6.249397e-03 9.715914e-03 
-1.389464e-02 8.556248e-03 1.008322e-02 
1.382738e-02 1.186560e-02 1.557127e-02 
4.476669e-02 1.335913e-02 1.267325e-02 
7.168904e-02 1.626201e-02 1.672700e-02 
-3.395332e-02 7.996616e-03 9.061499e-03 
-3.787009e-03 1.053166e-02 1.072512e-02 
2.371568e-02 1.380741e-02 1.618267e-02 
5.405743e-02 1.539245e-02 1.391489e-02 
-5.255799e-02 7.824562e-03 9.114669e-03 
-2.183132e-02 1.038675e-02 1.079360e-02 
6.753240e-03 1.342186e-02 1.500692e-02 
3.618315e-02 1.570587e-02 1.592308e-02 
6.476369e-02 1.792396e-02 1.681291e-02 
-3.950743e-02 9.965086e-03 9.549762e-03 
-8.483026e-03 1.220861e-02 9.918853e-03 
1.788515e-02 1.602675e-02 1.797895e-02 
5.017877e-02 1.676215e-02 1.187875e-02 
7.330951e-02 2.551938e-02 4.086610e-02 
-2.787945e-02 1.202042e-02 1.009114e-02 
1.508139e-03 1.477020e-02 1.302925e-02 
2.926110e-02 1.786651e-02 1.782068e-02 
6.002692e-02 1.910280e-02 1.426612e-02 
-4.565981e-02 1.161111e-02 8.837610e-03 
-1.512344e-02 1.411178e-02 1.051554e-02 
1.267208e-02 1.737497e-02 1.601168e-02 
4.398744e-02 1.862980e-02 1.246672e-02 
7.042841e-02 2.175658e-02 1.778608e-02 
-3.177300e-02 1.391980e-02 9.815682e-03 
-1.942407e-03 1.651218e-02 1.211633e-02 
2.466851e-02 2.015767e-02 1.950753e-02 
5.593500e-02 2.121542e-02 1.527246e-02 
-4.482353e-02 1.390082e-02 8.768810e-03 
-1.463798e-02 1.650891e-02 1.109749e-02 
1.348848e-02 1.961028e-02 1.594457e-02 
4.535862e-02 2.054327e-02 1.113931e-02 
7.103944e-02 2.467852e-02 2.076589e-02 
-2.748677e-02 1.650569e-02 1.006633e-02 
1.267651e-03 1.948373e-02 1.430343e-02 
2.908445e-02 2.253825e-02 1.909242e-02 
6.019380e-02 2.354544e-02 1.487488e-02 
-3.736630e-02 1.695540e-02 1.000049e-02 
-7.348867e-03 1.951654e-02 1.230735e-02 
2.002124e-02 2.286602e-02 1.842588e-02 
5.284809e-02 2.316756e-02 1.105439e-02 
-4.383970e-02 1.772079e-02 1.025565e-02 
-1.328344e-02 2.013806e-02 1.191588e-02 
1.484986e-02 2.320395e-02 1.675800e-02 
4.756519e-02 2.363846e-02 1.004346e-02 
-5.018016e-02 1.898145e-02 1.238861e-02 
-1.799688e-02 2.081621e-02 1.140970e-02 
1.024832e-02 2.388191e-02 1.626792e-02 
4.314201e-02 2.430157e-02 9.550089e-03 
7.010124e-02 2.708848e-02 1.364041e-02 
-2.147017e-02 2.154964e-02 1.078914e-02 
7.174226e-03 2.446687e-02 1.501188e-02 
3.929393e-02 2.530060e-02 1.020888e-02 
6.637253e-02 2.808477e-02 1.430386e-02 
-2.277461e-02 2.253421e-02 1.059650e-02 
6.227315e-03 2.529670e-02 1.417588e-02 
3.778397e-02 2.639989e-02 1.065421e-02 
6.491797e-02 2.917618e-02 1.475036e-02 
-2.316496e-02 2.371738e-02 1.094524e-02 
6.505912e-03 2.617466e-02 1.322743e-02 
3.774228e-02 2.740419e-02 1.035911e-02 
6.460734e-02 3.031460e-02 1.508750e-02 
-1.976985e-02 2.505161e-02 1.095749e-02 
9.174677e-03 2.778207e-02 1.453000e-02 
4.180557e-02 2.825552e-02 8.481046e-03 
6.800051e-02 3.143775e-02 1.446509e-02 
-1.330596e-02 2.682330e-02 1.193719e-02 
1.518359e-02 2.967526e-02 1.613777e-02 
4.791491e-02 2.995990e-02 9.432715e-03 
-3.325853e-02 2.693891e-02 1.279202e-02 
-2.239556e-03 2.892263e-02 1.311143e-02 
2.539081e-02 3.203823e-02 1.857432e-02 
5.888770e-02 3.168197e-02 9.327037e-03 
-2.024373e-02 2.830947e-02 1.069686e-02 
8.728021e-03 3.100314e-02 1.427508e-02 
4.139276e-02 3.140434e-02 8.227410e-03 
6.840963e-02 3.411851e-02 1.233803e-02 
-6.046229e-03 3.084581e-02 1.284475e-02 
2.199103e-02 3.379821e-02 1.767370e-02 
5.479465e-02 3.383863e-02 1.031474e-02 
-1.975922e-02 3.073182e-02 1.128249e-02 
9.547492e-03 3.324670e-02 1.420772e-02 
4.190554e-02 3.374598e-02 8.791256e-03 
6.920195e-02 3.628792e-02 1.227286e-02 
1.223622e-03 3.382118e-02 1.405072e-02 
3.212594e-02 3.521313e-02 1.242657e-02 
6.222837e-02 3.640749e-02 1.023318e-02 
-2.862803e-03 3.487808e-02 1.474220e-02 
2.759830e-02 3.656064e-02 1.438428e-02 
5.818881e-02 3.758491e-02 1.151690e-02 
1.138237e-03 3.587925e-02 1.344584e-02 
3.233994e-02 3.708241e-02 1.119505e-02 
6.160322e-02 3.869476e-02 1.090091e-02 
1.086845e-02 3.788929e-02 1.472156e-02 
4.322121e-02 3.828743e-02 9.289898e-03 
-7.059755e-03 3.801175e-02 1.482939e-02 
2.294584e-02 3.995991e-02 1.575975e-02 
5.375768e-02 4.092444e-02 1.285402e-02 
9.878248e-03 3.974481e-02 1.358371e-02 
4.167529e-02 4.040995e-02 9.438791e-03 
-5.968176e-04 4.011513e-02 1.299907e-02 
3.008317e-02 4.155401e-02 1.202999e-02 
5.864301e-02 4.356522e-02 1.361269e-02 
2.008911e-02 4.310711e-02 1.573479e-02 
5.158552e-02 4.370170e-02 1.155805e-02 
1.459146e-02 4.363522e-02 1.470715e-02 
4.655439e-02 4.406387e-02 9.910516e-03 
1.274011e-02 4.427020e-02 1.333633e-02 
4.416840e-02 4.499963e-02 9.831215e-03 
1.238088e-02 4.545562e-02 1.368290e-02 
4.326284e-02 4.647922e-02 1.143603e-02 
1.901711e-02 4.700156e-02 1.399935e-02 
4.997082e-02 4.783475e-02 1.112056e-02 
3.042540e-02 4.798638e-02 1.141130e-02 
2.104668e-02 4.927119e-02 1.381952e-02 
5.137659e-02 5.038257e-02 1.221127e-02 
4.633417e-02 5.075523e-02 1.056100e-02 
4.629245e-02 5.176020e-02 1.026569e-02 
-1.609959e-02 -4.550674e-02 1.667398e-02 
-1.481863e-02 -4.447554e-02 1.534619e-02 
-2.331268e-02 -4.540933e-02 1.398440e-02 
-3.722231e-02 -4.677080e-02 1.516546e-02 
-7.299369e-03 -4.189982e-02 1.086180e-02 
-2.907580e-02 -4.526858e-02 1.032310e-02 
-1.336785e-03 -3.946533e-02 1.143310e-02 
-3.138827e-02 -4.472958e-02 9.882567e-03 
-3.373675e-03 -3.905224e-02 1.033051e-02 
2.893251e-02 -2.873754e-02 2.552344e-02 
-1.603163e-02 -4.085490e-02 8.795389e-03 
9.421390e-03 -3.397677e-02 1.591441e-02 
3.820772e-02 -2.491577e-02 2.894019e-02 
-1.737574e-02 -4.003116e-02 8.733915e-03 
9.220295e-03 -3.379504e-02 1.251250e-02 
3.239411e-02 -2.563759e-02 2.632786e-02 
-1.991404e-02 -3.936583e-02 8.963565e-03 
7.187854e-03 -3.338273e-02 1.141231e-02 
3.014385e-02 -2.508816e-02 2.590238e-02 
-3.668727e-02 -4.075407e-02 1.204944e-02 
-7.052152e-03 -3.585552e-02 8.465256e-03 
1.830014e-02 -2.901227e-02 1.556446e-02 
4.191438e-02 -2.111034e-02 2.803115e-02 
-3.981109e-02 -3.982941e-02 1.364764e-02 
-9.804154e-03 -3.505848e-02 9.361038e-03 
1.670326e-02 -2.886409e-02 1.312990e-02 
3.987598e-02 -2.069690e-02 2.692780e-02 
6.490842e-02 -1.375489e-02 3.465594e-02 
-1.782062e-02 -3.462447e-02 1.278011e-02 
1.025716e-02 -2.918690e-02 1.253012e-02 
3.509558e-02 -2.210464e-02 2.094480e-02 
5.798982e-02 -1.361425e-02 3.616035e-02 
-2.804825e-02 -3.543749e-02 1.305986e-02 
4.969627e-04 -3.009870e-02 1.213591e-02 
2.691739e-02 -2.394150e-02 1.588374e-02 
4.875471e-02 -1.475995e-02 3.447378e-02 
-4.693840e-02 -3.588713e-02 2.104585e-02 
-1.601722e-02 -3.139242e-02 1.524096e-02 
1.276644e-02 -2.638123e-02 1.295633e-02 
3.901046e-02 -2.027069e-02 1.668520e-02 
6.219575e-02 -1.109522e-02 3.422089e-02 
-3.199802e-02 -3.392074e-02 1.323929e-02 
-3.577355e-03 -2.845493e-02 1.298273e-02 
2.358594e-02 -2.270034e-02 1.472948e-02 
4.753489e-02 -1.407933e-02 2.959187e-02 
-2.134062e-02 -3.071043e-02 1.330579e-02 
6.858381e-03 -2.530006e-02 1.304938e-02 
3.321774e-02 -1.917878e-02 1.678854e-02 
5.699221e-02 -1.040631e-02 3.232243e-02 
-3.910513e-02 -3.313158e-02 1.295156e-02 
-1.196902e-02 -2.684896e-02 1.675813e-02 
1.678229e-02 -2.189399e-02 1.445191e-02 
4.380690e-02 -1.637022e-02 1.551162e-02 
6.719547e-02 -6.306582e-03 3.611050e-02 
-2.908944e-02 -3.033569e-02 1.195916e-02 
-1.207170e-03 -2.464566e-02 1.305922e-02 
2.551333e-02 -1.864595e-02 1.614211e-02 
4.953743e-02 -1.100478e-02 2.725153e-02 
-4.417488e-02 -3.106756e-02 1.587271e-02 
-1.274994e-02 -2.542454e-02 1.431131e-02 
1.465393e-02 -1.966292e-02 1.605661e-02 
4.497191e-02 -1.358534e-02 1.689094e-02 
7.123680e-02 -2.624297e-03 3.866584e-02 
-2.367414e-02 -2.662141e-02 1.353707e-02 
6.728133e-03 -2.081416e-02 1.336099e-02 
3.748391e-02 -1.401234e-02 1.659583e-02 
6.597085e-02 -3.799218e-03 3.399717e-02 
-3.302224e-02 -2.711394e-02 1.420494e-02 
-1.674436e-03 -2.169098e-02 1.200193e-02 
2.441303e-02 -1.528687e-02 1.710287e-02 
-5.181029e-02 -2.757757e-02 2.155226e-02 
-2.016878e-02 -2.348223e-02 1.435176e-02 
9.968425e-03 -1.757096e-02 1.483797e-02 
3.770790e-02 -1.149382e-02 1.760847e-02 
7.171395e-02 6.057440e-04 3.798845e-02 
-2.924430e-02 -2.409915e-02 1.434071e-02 
-3.262663e-04 -1.901118e-02 1.272477e-02 
2.619631e-02 -1.290446e-02 1.648257e-02 
5.685779e-02 -6.343708e-03 1.901181e-02 
-3.804893e-02 -2.330434e-02 1.922815e-02 
-6.160389e-03 -1.888884e-02 1.317151e-02 
2.069454e-02 -1.290926e-02 1.626491e-02 
-4.454761e-02 -2.376453e-02 1.793171e-02 
1.494808e-02 -1.276944e-02 1.672018e-02 
4.073071e-02 -6.267083e-03 2.246820e-02 
-4.857876e-02 -2.392252e-02 1.602401e-02 
-1.888788e-02 -1.892931e-02 1.369152e-02 
1.573756e-02 -1.150059e-02 1.674566e-02 
4.191624e-02 -5.303092e-03 2.114462e-02 
-4.722477e-02 -2.290432e-02 1.467208e-02 
-1.784297e-02 -1.778986e-02 1.303873e-02 
1.769064e-02 -1.009398e-02 1.647483e-02 
4.344233e-02 -3.608096e-03 2.221970e-02 
-4.835040e-02 -2.218899e-02 1.392580e-02 
-1.870671e-02 -1.722636e-02 1.162490e-02 
1.075126e-02 -1.008364e-02 1.722932e-02 
3.898961e-02 -4.345125e-03 1.864634e-02 
7.832650e-02 8.769774e-03 3.889463e-02 
-2.126969e-02 -1.652109e-02 1.186092e-02 
3.446496e-02 -4.047717e-03 1.880988e-02 
7.404581e-02 8.936627e-03 3.841340e-02 
-2.600667e-02 -1.624587e-02 1.201196e-02 
4.032809e-03 -1.025464e-02 1.319790e-02 
2.992039e-02 -3.748996e-03 1.897408e-02 
7.217958e-02 9.190623e-03 3.661837e-02 
-2.833415e-02 -1.568118e-02 1.156948e-02 
-3.766990e-04 -1.011517e-02 1.267654e-02 
2.599294e-02 -3.902928e-03 1.711533e-02 
6.901251e-02 9.481665e-03 3.582271e-02 
-3.318113e-02 -1.453127e-02 1.483770e-02 
-4.084991e-03 -9.541174e-03 1.320829e-02 
2.257964e-02 -3.470284e-03 1.697942e-02 
-4.018090e-02 -1.468406e-02 1.491273e-02 
-1.042722e-02 -9.973510e-03 1.192414e-02 
1.770189e-02 -3.908732e-03 1.474065e-02 
-5.040426e-02 -1.556661e-02 1.451635e-02 
-2.014607e-02 -1.097372e-02 1.084488e-02 
9.092191e-03 -4.597765e-03 1.405703e-02 
7.196687e-02 1.389820e-02 3.765480e-02 
-2.947836e-02 -1.139611e-02 1.150073e-02 
6.848508e-04 -4.549830e-03 1.578004e-02 
2.872405e-02 1.470940e-03 1.856537e-02 
5.725313e-02 5.544321e-03 1.426608e-02 
-3.626727e-02 -1.080258e-02 1.400284e-02 
-8.045911e-03 -5.246446e-03 1.509382e-02 
1.963477e-02 2.033079e-04 1.616379e-02 
-4.839636e-02 -1.225212e-02 1.283017e-02 
-2.020170e-02 -6.509676e-03 1.461875e-02 
7.491705e-03 -8.693017e-04 1.637555e-02 
3.449155e-02 4.829016e-03 1.877522e-02 
7.504261e-02 1.704012e-02 3.497849e-02 
-3.290914e-02 -8.376179e-03 1.238616e-02 
-5.733721e-03 -2.240693e-03 1.620777e-02 
2.194523e-02 3.184187e-03 1.726783e-02 
4.948548e-02 8.188305e-03 1.696978e-02 
-4.802057e-02 -9.794287e-03 1.318353e-02 
-1.930900e-02 -4.376178e-03 1.360521e-02 
8.129278e-03 1.397055e-03 1.604697e-02 
3.471297e-02 7.395571e-03 1.979937e-02 
-3.026824e-02 -6.401510e-03 9.713485e-03 
-4.137111e-03 3.252462e-04 1.625927e-02 
2.309680e-02 6.043304e-03 1.867231e-02 
5.238727e-02 9.583971e-03 1.236746e-02 
-4.930831e-02 -8.068530e-03 1.207459e-02 
-2.008366e-02 -2.976748e-03 1.114861e-02 
6.637410e-03 3.248412e-03 1.563594e-02 
3.325059e-02 9.238975e-03 1.939388e-02 
7.301121e-02 1.877523e-02 2.699995e-02 
-3.994746e-02 -4.897506e-03 1.313211e-02 
-1.211423e-02 9.275030e-04 1.559779e-02 
1.614913e-02 6.019365e-03 1.531449e-02 
4.339717e-02 1.132213e-02 1.637463e-02 
-3.004037e-02 -2.961659e-03 9.703639e-03 
-4.127956e-03 3.916163e-03 1.693677e-02 
2.421938e-02 8.806650e-03 1.596436e-02 
5.266859e-02 1.293543e-02 1.235982e-02 
-5.311111e-02 -4.853964e-03 1.366129e-02 
-2.322609e-02 -9.493517e-05 1.135015e-02 
3.573164e-03 6.126927e-03 1.584646e-02 
3.068444e-02 1.178521e-02 1.825747e-02 
-4.828281e-02 -3.294695e-03 1.209247e-02 
-2.029746e-02 2.534441e-03 1.457407e-02 
7.230373e-03 8.268446e-03 1.701524e-02 
3.451826e-02 1.374501e-02 1.874045e-02 
7.042570e-02 1.987653e-02 1.741067e-02 
-4.305541e-02 -1.140332e-03 1.229152e-02 
-1.589615e-02 5.143856e-03 1.682255e-02 
1.251404e-02 1.020770e-02 1.652458e-02 
4.009823e-02 1.532500e-02 1.690459e-02 
7.312048e-02 2.280869e-02 2.189013e-02 
-3.881031e-02 7.166464e-04 1.210383e-02 
-1.147323e-02 6.818523e-03 1.594450e-02 
1.660461e-02 1.201627e-02 1.633384e-02 
4.509298e-02 1.628091e-02 1.337349e-02 
-3.431577e-02 2.408912e-03 1.123238e-02 
-7.070055e-03 8.485607e-03 1.507034e-02 
2.024826e-02 1.414987e-02 1.749833e-02 
4.945966e-02 1.772194e-02 1.186261e-02 
-6.202725e-02 -2.809746e-04 1.505793e-02 
-3.132188e-02 4.123749e-03 1.134506e-02 
-3.642245e-03 9.857491e-03 1.381819e-02 
2.315745e-02 1.583076e-02 1.760479e-02 
5.172584e-02 1.987219e-02 1.396311e-02 
-6.247559e-02 8.979485e-04 1.539023e-02 
-3.148060e-02 5.127171e-03 1.098611e-02 
-3.799642e-03 1.085277e-02 1.346201e-02 
2.256939e-02 1.715435e-02 1.860830e-02 
5.176320e-02 2.067868e-02 1.294995e-02 
-3.531771e-02 5.744547e-03 1.152253e-02 
-6.585445e-03 1.176630e-02 1.438236e-02 
2.007529e-02 1.790855e-02 1.885399e-02 
4.993229e-02 2.092138e-02 1.119170e-02 
7.456865e-02 2.788965e-02 1.955937e-02 
-3.890572e-02 6.202193e-03 1.137489e-02 
-5.546568e-03 1.288626e-02 1.372705e-02 
2.108829e-02 1.901727e-02 1.819926e-02 
5.071258e-02 2.217544e-02 1.121685e-02 
7.552143e-02 2.896867e-02 1.891746e-02 
-3.809782e-02 7.500683e-03 1.140098e-02 
-4.747070e-03 1.417113e-02 1.375287e-02 
2.188300e-02 2.029462e-02 1.822487e-02 
5.168408e-02 2.326013e-02 1.058007e-02 
7.664533e-02 2.987246e-02 1.761149e-02 
-3.605856e-02 8.925913e-03 1.112770e-02 
-2.033360e-03 1.603252e-02 1.454349e-02 
2.500970e-02 2.180213e-02 1.765199e-02 
5.433070e-02 2.507543e-02 1.135127e-02 
-3.235176e-02 1.109642e-02 1.231226e-02 
5.696164e-03 1.916438e-02 1.656371e-02 
3.328581e-02 2.438796e-02 1.762127e-02 
6.182820e-02 2.812350e-02 1.332388e-02 
-5.211561e-02 8.174696e-03 1.047915e-02 
-2.477908e-02 1.443108e-02 1.504168e-02 
1.099888e-02 2.108517e-02 1.607276e-02 
3.989193e-02 2.507035e-02 1.243485e-02 
6.669847e-02 3.015110e-02 1.351369e-02 
-4.411135e-02 1.040436e-02 9.395947e-03 
-1.717410e-02 1.679357e-02 1.463308e-02 
1.796241e-02 2.374378e-02 1.702428e-02 
4.768686e-02 2.682036e-02 1.005311e-02 
7.271423e-02 3.343672e-02 1.710120e-02 
-3.405819e-02 1.399285e-02 1.153141e-02 
1.888630e-03 2.163252e-02 1.571128e-02 
5.838302e-02 3.036900e-02 1.182489e-02 
-4.773433e-02 1.267631e-02 1.133489e-02 
-1.895562e-02 1.885291e-02 1.490211e-02 
1.625301e-02 2.579051e-02 1.729381e-02 
4.565974e-02 2.918239e-02 1.163686e-02 
7.182681e-02 3.474360e-02 1.470548e-02 
-3.076804e-02 1.734313e-02 1.304372e-02 
4.677795e-03 2.431822e-02 1.546328e-02 
6.050657e-02 3.350958e-02 1.357549e-02 
-4.071013e-02 1.640883e-02 1.194978e-02 
-5.528107e-03 2.277897e-02 1.264173e-02 
2.049149e-02 2.939217e-02 1.917182e-02 
5.062031e-02 3.201975e-02 1.081703e-02 
-5.084732e-02 1.644751e-02 1.400908e-02 
-2.237535e-02 2.198219e-02 1.580326e-02 
1.078445e-02 2.751101e-02 1.500008e-02 
3.929846e-02 3.175837e-02 1.271197e-02 
6.634953e-02 3.660799e-02 1.312719e-02 
-2.956978e-02 2.112370e-02 1.342325e-02 
-8.157156e-04 2.604274e-02 1.316132e-02 
5.555923e-02 3.484455e-02 1.000089e-02 
-3.607036e-02 2.072957e-02 1.211515e-02 
-7.681892e-03 2.601218e-02 1.323093e-02 
1.928434e-02 3.190839e-02 1.704117e-02 
4.902805e-02 3.484050e-02 1.005953e-02 
-1.241676e-02 2.638481e-02 1.338599e-02 
1.531008e-02 3.175274e-02 1.516040e-02 
4.413994e-02 3.558159e-02 1.153594e-02 
-9.919707e-03 2.743447e-02 1.174719e-02 
1.706146e-02 3.332113e-02 1.556746e-02 
4.606225e-02 3.694662e-02 1.127018e-02 
-2.736500e-02 2.703903e-02 1.629067e-02 
1.918200e-03 3.154571e-02 1.462814e-02 
2.941498e-02 3.684783e-02 1.638491e-02 
5.830759e-02 4.022407e-02 1.142672e-02 
-3.273491e-03 3.128017e-02 1.303581e-02 
2.364321e-02 3.713680e-02 1.684455e-02 
5.309518e-02 4.015339e-02 1.053489e-02 
-3.194036e-03 3.209925e-02 1.199680e-02 
2.305325e-02 3.849806e-02 1.785147e-02 
5.294092e-02 4.112895e-02 1.018574e-02 
3.362774e-03 3.512016e-02 1.432247e-02 
3.168444e-02 3.965264e-02 1.337878e-02 
5.915824e-02 4.426444e-02 1.312288e-02 
1.296463e-02 3.779517e-02 1.400320e-02 
4.167112e-02 4.172526e-02 1.105797e-02 
-2.459939e-03 3.622430e-02 1.373746e-02 
2.535167e-02 4.131048e-02 1.482768e-02 
5.359019e-02 4.536367e-02 1.254849e-02 
1.478436e-02 4.017533e-02 1.337536e-02 
4.304623e-02 4.444171e-02 1.177739e-02 
9.170859e-03 4.028918e-02 1.314745e-02 
3.715709e-02 4.493807e-02 1.289170e-02 
8.056107e-03 4.099766e-02 1.240841e-02 
3.564349e-02 4.601545e-02 1.350658e-02 
9.585374e-03 4.275880e-02 1.349708e-02 
3.758770e-02 4.738381e-02 1.323723e-02 
1.488738e-02 4.462964e-02 1.301216e-02 
4.296913e-02 4.903352e-02 1.208744e-02 
2.302641e-02 4.735365e-02 1.367244e-02 
5.133699e-02 5.133305e-02 1.140527e-02 
3.514201e-02 5.101849e-02 1.517288e-02 
2.388172e-02 4.943445e-02 1.266556e-02 
1.476728e-02 4.928341e-02 1.332811e-02 
4.229022e-02 5.422161e-02 1.441748e-02 
2.276142e-02 5.299554e-02 1.363282e-02 
-2.035634e-02 -4.546415e-02 2.704245e-02 
5.019028e-02 -2.036203e-02 3.286151e-02 
4.323986e-02 -2.217315e-02 3.026372e-02 
-2.673616e-02 -4.515048e-02 2.315569e-02 
4.576538e-02 -1.994498e-02 3.122357e-02 
-3.239272e-02 -4.558084e-02 2.378571e-02 
9.062418e-03 -3.351944e-02 2.056533e-02 
4.742952e-02 -1.826032e-02 3.126639e-02 
-3.888560e-02 -4.654537e-02 2.349514e-02 
2.712043e-03 -3.445401e-02 2.027365e-02 
3.087945e-02 -2.567512e-02 2.006005e-02 
6.344522e-02 -1.067433e-02 3.595227e-02 
-2.415777e-02 -4.165553e-02 2.053321e-02 
1.566782e-02 -2.955897e-02 1.922016e-02 
5.142182e-02 -1.398040e-02 3.367956e-02 
-3.905717e-02 -4.627151e-02 1.689206e-02 
-9.164446e-03 -3.731359e-02 1.553424e-02 
1.903987e-02 -2.852856e-02 1.535216e-02 
5.426060e-02 -1.228652e-02 3.252882e-02 
-4.060019e-02 -4.669102e-02 1.329573e-02 
-1.442306e-02 -3.804766e-02 1.476086e-02 
1.479797e-02 -2.888547e-02 1.479739e-02 
4.385466e-02 -1.629629e-02 2.627320e-02 
6.880115e-02 -6.358722e-03 3.326160e-02 
-2.630949e-02 -4.152416e-02 1.179179e-02 
1.340672e-03 -3.187518e-02 1.505800e-02 
2.773295e-02 -2.421728e-02 1.309064e-02 
5.090444e-02 -1.168209e-02 3.040315e-02 
-4.555963e-02 -4.580013e-02 1.372711e-02 
-1.868822e-02 -3.779386e-02 1.243785e-02 
1.014643e-02 -2.813419e-02 1.454134e-02 
3.618806e-02 -2.017618e-02 1.394128e-02 
6.060666e-02 -7.601097e-03 3.006517e-02 
-3.459884e-02 -4.258145e-02 9.295758e-03 
-6.534835e-03 -3.189575e-02 1.553445e-02 
2.120360e-02 -2.419250e-02 1.240702e-02 
5.010582e-02 -1.143482e-02 2.453023e-02 
-3.941751e-02 -4.247316e-02 1.079252e-02 
-1.000546e-02 -3.172149e-02 1.588138e-02 
3.446500e-02 -1.832193e-02 1.432415e-02 
5.965246e-02 -9.384768e-03 1.780750e-02 
-3.095683e-02 -3.819901e-02 1.234569e-02 
2.732354e-03 -2.649163e-02 1.622042e-02 
4.976517e-02 -9.916595e-03 2.237365e-02 
-4.425915e-02 -4.039553e-02 1.489776e-02 
-1.831411e-03 -2.650714e-02 1.704420e-02 
-4.817051e-02 -3.990676e-02 1.664222e-02 
-4.186633e-03 -2.612703e-02 1.691694e-02 
4.419397e-02 -9.503505e-03 2.191412e-02 
-1.019415e-02 -2.599539e-02 1.961578e-02 
4.392122e-02 -8.561771e-03 2.152797e-02 
-9.348216e-03 -2.484633e-02 1.874554e-02 
4.257655e-02 -7.802943e-03 2.161923e-02 
6.942437e-02 -2.021252e-03 1.347345e-02 
-2.059610e-05 -2.161371e-02 1.613820e-02 
4.997878e-02 -5.959448e-03 1.653880e-02 
-4.722251e-02 -3.412522e-02 1.922996e-02 
3.391745e-02 -1.013748e-02 1.547798e-02 
6.004752e-02 -2.866798e-03 1.283666e-02 
-2.224579e-03 -2.080950e-02 1.355261e-02 
4.645658e-02 -4.996728e-03 1.581522e-02 
-4.251701e-02 -3.067495e-02 1.813041e-02 
3.892149e-02 -5.692892e-03 1.736328e-02 
2.782214e-02 -8.418146e-03 1.599635e-02 
5.476668e-02 -2.446347e-03 8.610102e-03 
-4.376889e-02 -2.806854e-02 2.015592e-02 
3.611447e-02 -3.985355e-03 1.822842e-02 
6.332934e-02 1.176769e-03 8.114956e-03 
-4.144006e-02 -2.563319e-02 2.183083e-02 
3.765987e-02 -2.119650e-03 1.896121e-02 
6.495866e-02 2.826039e-03 8.156781e-03 
3.244348e-02 -2.826758e-03 1.819143e-02 
5.947716e-02 2.891139e-03 1.008361e-02 
-4.925717e-02 -2.598575e-02 2.092037e-02 
1.813826e-02 -6.291361e-03 1.755782e-02 
4.365859e-02 2.724578e-03 2.107488e-02 
7.046289e-02 8.559904e-03 1.359712e-02 
2.357684e-03 -1.124907e-02 1.372256e-02 
2.791288e-02 -2.222221e-03 1.724812e-02 
5.473905e-02 4.062924e-03 1.117614e-02 
1.313416e-02 -6.800768e-03 1.363640e-02 
3.849841e-02 2.388219e-03 1.784392e-02 
6.628722e-02 8.582340e-03 1.063323e-02 
-4.561584e-02 -2.212221e-02 1.849453e-02 
2.059667e-02 -2.910584e-03 1.496888e-02 
4.657946e-02 5.109149e-03 1.504765e-02 
7.400337e-02 1.416048e-02 1.691465e-02 
2.624522e-02 5.259752e-05 1.518264e-02 
5.307252e-02 6.305140e-03 9.140489e-03 
7.851832e-02 1.691754e-02 1.759532e-02 
-2.454560e-02 -1.488956e-02 1.367728e-02 
3.381661e-02 3.746897e-03 1.582526e-02 
6.053099e-02 9.949156e-03 9.779691e-03 
-1.115281e-02 -8.731205e-03 1.632489e-02 
3.944712e-02 6.700984e-03 1.603798e-02 
6.580386e-02 1.345467e-02 1.202393e-02 
-5.173752e-02 -2.141365e-02 1.210498e-02 
-8.499972e-03 -6.662204e-03 1.658509e-02 
3.594165e-02 7.126900e-03 1.707440e-02 
6.276055e-02 1.309884e-02 1.032769e-02 
-5.667624e-02 -2.124022e-02 1.363139e-02 
-2.178260e-02 -1.017212e-02 1.476305e-02 
2.151232e-02 3.882968e-03 1.712940e-02 
4.841301e-02 1.031167e-02 1.171694e-02 
7.352236e-02 1.940185e-02 1.589345e-02 
-1.356095e-02 -5.489185e-03 1.772470e-02 
3.020807e-02 7.763416e-03 1.729660e-02 
6.126623e-02 1.459978e-02 9.351249e-03 
-2.542913e-02 -9.193157e-03 1.402350e-02 
1.636579e-02 3.543756e-03 1.389228e-02 
4.766345e-02 1.258172e-02 1.231125e-02 
7.585396e-02 2.236712e-02 1.576508e-02 
-3.043491e-02 -1.028552e-02 1.184942e-02 
1.098278e-02 3.031364e-03 1.380577e-02 
3.860450e-02 1.257747e-02 1.707564e-02 
6.549805e-02 1.828113e-02 9.647688e-03 
-5.242725e-02 -1.459648e-02 1.547223e-02 
-2.093342e-02 -5.607236e-03 1.363152e-02 
1.885069e-02 6.348455e-03 1.307356e-02 
4.456358e-02 1.492724e-02 1.522121e-02 
7.243848e-02 2.314417e-02 1.435926e-02 
-4.428692e-02 -1.118506e-02 1.472405e-02 
-1.436539e-02 -2.045899e-03 1.476158e-02 
2.245051e-02 8.769302e-03 1.354686e-02 
4.856364e-02 1.653066e-02 1.294985e-02 
7.425100e-02 2.439626e-02 1.303993e-02 
-3.861849e-02 -9.469907e-03 1.123412e-02 
-9.752930e-03 7.707760e-04 1.545680e-02 
1.720744e-02 8.068212e-03 1.277082e-02 
4.305277e-02 1.644474e-02 1.423398e-02 
6.911070e-02 2.371517e-02 1.227306e-02 
-3.889573e-02 -8.512656e-03 1.084168e-02 
-4.995860e-03 3.392367e-03 1.545532e-02 
2.190254e-02 1.066122e-02 1.277123e-02 
4.781206e-02 1.881658e-02 1.354762e-02 
7.682483e-02 2.673376e-02 1.087703e-02 
-1.910646e-02 -6.699579e-04 1.271738e-02 
9.917732e-03 9.130465e-03 1.553682e-02 
3.842575e-02 1.726539e-02 1.397619e-02 
6.483128e-02 2.392122e-02 9.977310e-03 
-3.144546e-02 -3.803233e-03 1.110448e-02 
1.010850e-03 8.302438e-03 1.758880e-02 
2.948145e-02 1.688749e-02 1.739095e-02 
5.652240e-02 2.276173e-02 1.060557e-02 
-4.961696e-02 -7.876833e-03 1.187778e-02 
-7.094333e-03 6.277552e-03 1.545678e-02 
1.923459e-02 1.454017e-02 1.622729e-02 
4.560943e-02 2.209656e-02 1.492075e-02 
7.151291e-02 2.975319e-02 1.431603e-02 
-1.648463e-02 4.271751e-03 1.450039e-02 
9.798924e-03 1.275857e-02 1.597220e-02 
3.618884e-02 2.055058e-02 1.535464e-02 
6.297115e-02 2.656732e-02 9.292719e-03 
-4.096911e-02 -2.963572e-03 1.166158e-02 
1.298951e-03 1.134123e-02 1.593324e-02 
2.708430e-02 2.039826e-02 1.948542e-02 
5.415698e-02 2.645666e-02 1.333203e-02 
-5.135427e-02 -4.038075e-03 1.419800e-02 
-7.777976e-03 8.945517e-03 1.358532e-02 
1.828166e-02 1.759740e-02 1.575192e-02 
4.468299e-02 2.513679e-02 1.444773e-02 
7.078484e-02 3.235335e-02 1.248087e-02 
-1.860653e-02 7.166793e-03 1.450054e-02 
7.725569e-03 1.565340e-02 1.597452e-02 
3.393871e-02 2.385524e-02 1.674126e-02 
6.073333e-02 3.005950e-02 1.132545e-02 
-5.209487e-02 -1.914784e-03 1.410972e-02 
-5.688079e-03 1.237613e-02 1.484703e-02 
2.077804e-02 2.040628e-02 1.492745e-02 
4.714153e-02 2.791948e-02 1.363046e-02 
7.354247e-02 3.425330e-02 8.958259e-03 
-1.833555e-02 9.658306e-03 1.463157e-02 
7.879980e-03 1.834620e-02 1.680371e-02 
3.470394e-02 2.549333e-02 1.410385e-02 
6.086873e-02 3.294163e-02 1.281756e-02 
-5.031585e-02 3.799833e-04 1.235271e-02 
-1.241851e-02 1.245612e-02 1.415033e-02 
1.399677e-02 2.070504e-02 1.492938e-02 
4.057824e-02 2.802132e-02 1.294117e-02 
6.637288e-02 3.608159e-02 1.371617e-02 
-4.403441e-02 4.371536e-03 1.490023e-02 
-1.269594e-02 1.341400e-02 1.375763e-02 
1.456658e-02 2.223819e-02 1.545084e-02 
6.706330e-02 3.738854e-02 1.354464e-02 
-4.018596e-02 6.643755e-03 1.467944e-02 
-1.003117e-02 1.549219e-02 1.401890e-02 
1.734729e-02 2.409690e-02 1.501551e-02 
4.379442e-02 3.159948e-02 1.371501e-02 
6.967920e-02 3.942867e-02 1.380121e-02 
-3.767187e-02 8.938872e-03 1.564697e-02 
-8.494835e-03 1.740309e-02 1.476060e-02 
1.876921e-02 2.621608e-02 1.645059e-02 
4.566909e-02 3.285308e-02 1.238200e-02 
-6.126122e-02 1.833034e-03 1.230202e-02 
-3.498505e-02 1.103428e-02 1.591054e-02 
-6.809549e-03 1.910919e-02 1.480388e-02 
2.142406e-02 2.828654e-02 1.671097e-02 
4.850386e-02 3.447054e-02 1.126765e-02 
-5.937177e-02 3.358149e-03 1.164241e-02 
-3.311963e-02 1.254904e-02 1.524962e-02 
-5.959841e-03 2.023311e-02 1.393086e-02 
2.114764e-02 2.924093e-02 1.631966e-02 
4.823069e-02 3.541371e-02 1.088106e-02 
-5.847477e-02 4.504128e-03 1.076373e-02 
-3.241106e-02 1.389040e-02 1.507365e-02 
-5.256549e-03 2.156451e-02 1.375612e-02 
2.087127e-02 3.019520e-02 1.592841e-02 
4.785359e-02 3.657385e-02 1.117926e-02 
-5.875474e-02 5.470756e-03 1.036750e-02 
-3.269060e-02 1.485556e-02 1.467797e-02 
-5.533978e-03 2.252244e-02 1.336332e-02 
2.072023e-02 3.093415e-02 1.484138e-02 
4.758022e-02 3.751768e-02 1.079231e-02 
-5.823156e-02 7.014303e-03 1.089293e-02 
-3.198199e-02 1.619688e-02 1.450186e-02 
-5.266498e-03 2.448798e-02 1.528494e-02 
2.129552e-02 3.247600e-02 1.536302e-02 
4.827315e-02 3.882944e-02 1.062015e-02 
-5.770760e-02 8.560096e-03 1.141923e-02 
-3.110757e-02 1.733060e-02 1.362309e-02 
-4.852188e-03 2.624875e-02 1.651222e-02 
2.212055e-02 3.358496e-02 1.449345e-02 
4.875935e-02 4.058144e-02 1.181986e-02 
-5.483049e-02 1.045729e-02 1.098035e-02 
-2.842484e-02 1.942297e-02 1.388624e-02 
-1.890880e-03 2.790521e-02 1.537169e-02 
2.489562e-02 3.543531e-02 1.405885e-02 
5.098117e-02 4.352267e-02 1.483439e-02 
-5.033958e-02 1.351518e-02 1.238803e-02 
-2.344741e-02 2.184531e-02 1.318449e-02 
2.885212e-03 3.052020e-02 1.537030e-02 
2.961640e-02 3.802527e-02 1.405842e-02 
5.546065e-02 4.654400e-02 1.621670e-02 
-4.350662e-02 1.691692e-02 1.282907e-02 
1.001897e-02 3.322444e-02 1.371089e-02 
3.684385e-02 4.024481e-02 1.103638e-02 
-3.453612e-02 2.085655e-02 1.300614e-02 
-8.231030e-03 2.977751e-02 1.590150e-02 
1.880959e-02 3.709571e-02 1.388469e-02 
4.519806e-02 4.474312e-02 1.327957e-02 
-4.838678e-02 1.776008e-02 1.256236e-02 
-2.180182e-02 2.650254e-02 1.476372e-02 
5.273438e-03 3.408246e-02 1.344851e-02 
3.194733e-02 4.154993e-02 1.215283e-02 
-3.444364e-02 2.358978e-02 1.384093e-02 
-7.655114e-03 3.186078e-02 1.462915e-02 
1.898059e-02 3.982263e-02 1.471140e-02 
4.519362e-02 4.791720e-02 1.548645e-02 
-3.175273e-02 2.568833e-02 1.410474e-02 
-4.542193e-03 3.329138e-02 1.279152e-02 
2.189100e-02 4.145020e-02 1.357945e-02 
4.773558e-02 5.021067e-02 1.644091e-02 
9.479048e-03 3.860138e-02 1.266370e-02 
3.598845e-02 4.625571e-02 1.206539e-02 
-5.828411e-03 3.631522e-02 1.550677e-02 
2.133777e-02 4.336032e-02 1.279634e-02 
4.697277e-02 5.257711e-02 1.705194e-02 
1.088457e-02 4.126213e-02 1.231451e-02 
3.704613e-02 4.958407e-02 1.379597e-02 
5.019911e-03 4.147319e-02 1.432036e-02 
3.165781e-02 4.913680e-02 1.370878e-02 
6.572181e-03 4.340929e-02 1.506438e-02 
3.333557e-02 5.083528e-02 1.375185e-02 
1.763674e-02 4.757590e-02 1.427497e-02 
3.243270e-02 5.344053e-02 1.505735e-02 
-4.581914e-03 -4.615317e-02 3.526830e-02 
5.137417e-02 -2.025793e-02 3.470723e-02 
5.194650e-02 -1.890993e-02 3.434805e-02 
4.965156e-02 -1.955853e-02 3.172910e-02 
2.358973e-02 -3.337017e-02 2.101139e-02 
-3.941730e-04 -4.038841e-02 2.856617e-02 
5.754159e-02 -1.331218e-02 3.274765e-02 
3.901003e-02 -2.346666e-02 2.306405e-02 
-6.870440e-03 -4.165629e-02 2.607772e-02 
2.711370e-02 -2.785806e-02 2.211273e-02 
5.579889e-02 -1.240328e-02 3.048003e-02 
8.548819e-03 -3.553990e-02 2.014895e-02 
3.532749e-02 -2.278253e-02 2.281699e-02 
7.267184e-02 -8.989741e-03 1.428671e-02 
1.023758e-02 -3.459553e-02 1.708340e-02 
3.598344e-02 -2.231369e-02 1.969355e-02 
6.658938e-02 -1.138761e-02 1.158198e-02 
-6.177790e-03 -3.786380e-02 2.565779e-02 
1.936472e-02 -2.910434e-02 1.782718e-02 
4.424987e-02 -1.812299e-02 1.763921e-02 
6.904287e-02 -9.198731e-03 1.132107e-02 
-3.292322e-02 -4.814018e-02 2.681337e-02 
6.591108e-03 -3.412943e-02 1.614633e-02 
3.150206e-02 -2.336353e-02 1.527628e-02 
5.825182e-02 -1.354157e-02 9.076566e-03 
-5.419757e-02 -5.279816e-02 3.757517e-02 
-2.357267e-02 -4.299267e-02 2.616747e-02 
1.105730e-02 -3.146191e-02 1.460417e-02 
3.581149e-02 -1.963252e-02 1.716114e-02 
6.354198e-02 -1.049721e-02 7.605427e-03 
-4.811461e-02 -5.058266e-02 3.242977e-02 
-1.997125e-02 -4.072223e-02 2.454494e-02 
1.066743e-02 -3.057187e-02 1.420462e-02 
3.539849e-02 -1.852244e-02 1.744819e-02 
6.031950e-02 -1.069579e-02 7.746871e-03 
-5.205803e-02 -4.961709e-02 3.689444e-02 
-1.031140e-02 -3.683580e-02 1.972637e-02 
1.508385e-02 -2.770220e-02 1.334980e-02 
3.980652e-02 -1.565529e-02 1.658916e-02 
6.465413e-02 -6.969555e-03 9.598738e-03 
-4.802210e-02 -4.811336e-02 3.237209e-02 
-1.856288e-03 -3.280348e-02 1.697353e-02 
2.320933e-02 -2.244084e-02 1.472786e-02 
4.803924e-02 -1.126186e-02 1.522866e-02 
7.280828e-02 -1.253238e-03 1.231920e-02 
-3.880600e-02 -4.824156e-02 1.620915e-02 
7.701939e-04 -3.121876e-02 1.464821e-02 
2.649198e-02 -1.870404e-02 1.794569e-02 
5.153912e-02 -1.018974e-02 1.024514e-02 
7.622593e-02 1.610393e-03 1.278265e-02 
-3.521138e-02 -4.598164e-02 1.461452e-02 
3.312426e-04 -3.011648e-02 1.493368e-02 
2.705838e-02 -1.736980e-02 1.759017e-02 
5.208996e-02 -8.643839e-03 1.057069e-02 
7.678001e-02 2.700807e-03 1.175049e-02 
-3.545361e-02 -4.548660e-02 1.284151e-02 
-3.183952e-03 -2.948777e-02 1.783813e-02 
2.465937e-02 -1.669432e-02 1.916861e-02 
4.977876e-02 -8.180480e-03 1.143964e-02 
7.451096e-02 3.414435e-03 1.330236e-02 
-3.752953e-02 -4.606924e-02 1.030065e-02 
3.125589e-04 -2.704072e-02 1.692910e-02 
2.522703e-02 -1.535721e-02 1.881228e-02 
5.032949e-02 -6.629626e-03 1.176679e-02 
7.508023e-02 4.974825e-03 1.363115e-02 
-3.608556e-02 -4.410170e-02 1.067371e-02 
2.845169e-03 -2.503773e-02 1.597567e-02 
2.777138e-02 -1.358454e-02 1.716675e-02 
5.283436e-02 -5.339640e-03 8.791226e-03 
7.753973e-02 6.939809e-03 1.268704e-02 
-3.567008e-02 -4.236905e-02 1.168518e-02 
2.406402e-03 -2.392757e-02 1.626289e-02 
2.737955e-02 -1.268999e-02 1.676520e-02 
5.243654e-02 -4.226528e-03 9.070173e-03 
7.811993e-02 8.740782e-03 1.369771e-02 
-3.532790e-02 -4.042822e-02 1.338581e-02 
4.937499e-03 -2.192691e-02 1.530987e-02 
2.986378e-02 -1.047383e-02 1.650101e-02 
5.490537e-02 -2.260541e-03 8.132255e-03 
8.060022e-02 1.118386e-02 1.411829e-02 
-3.328253e-02 -3.697674e-02 1.725906e-02 
1.029786e-02 -1.838929e-02 1.518320e-02 
3.517855e-02 -6.479444e-03 1.775412e-02 
6.020676e-02 1.472810e-03 8.683013e-03 
-5.830684e-02 -4.074650e-02 3.484920e-02 
1.558384e-02 -1.440663e-02 1.643439e-02 
4.052794e-02 -2.705144e-03 1.831868e-02 
6.551672e-02 4.742684e-03 7.881345e-03 
-5.218864e-02 -3.858924e-02 2.970645e-02 
-9.883618e-03 -2.454998e-02 1.621891e-02 
1.511618e-02 -1.306296e-02 1.741363e-02 
4.200349e-02 -2.252229e-04 2.008749e-02 
6.702932e-02 7.444819e-03 1.028432e-02 
-5.152251e-02 -3.743764e-02 2.863220e-02 
-1.310280e-02 -2.519329e-02 1.498838e-02 
2.042491e-02 -9.060697e-03 1.867181e-02 
4.552253e-02 1.502339e-03 1.709817e-02 
7.046623e-02 1.152083e-02 1.416116e-02 
-4.503875e-02 -3.927477e-02 1.169669e-02 
-8.691423e-03 -2.208927e-02 1.481552e-02 
3.064993e-02 -3.526471e-03 1.808139e-02 
5.575993e-02 5.116199e-03 1.102669e-02 
8.055847e-02 1.651058e-02 1.221178e-02 
-3.384186e-02 -3.011562e-02 2.019771e-02 
2.538526e-02 -4.377784e-03 1.883487e-02 
5.153354e-02 4.724004e-03 1.180895e-02 
7.639102e-02 1.686897e-02 1.505199e-02 
4.436120e-02 3.953837e-03 1.520245e-02 
6.930102e-02 1.492702e-02 1.501765e-02 
-4.818464e-02 -3.453574e-02 1.873924e-02 
2.946998e-02 -8.327094e-04 1.687216e-02 
5.552862e-02 8.701150e-03 1.123693e-02 
8.034261e-02 1.961911e-02 1.105865e-02 
-3.808758e-02 -2.831144e-02 2.023937e-02 
9.790206e-03 -8.549716e-03 1.624072e-02 
3.775772e-02 3.807767e-03 1.619158e-02 
6.277479e-02 1.358802e-02 1.256918e-02 
-5.749651e-02 -3.182015e-02 3.102716e-02 
1.509889e-02 -4.534783e-03 1.749908e-02 
4.028740e-02 5.554659e-03 1.454741e-02 
6.525352e-02 1.579931e-02 1.230555e-02 
-5.575055e-02 -3.043321e-02 2.927919e-02 
-1.048250e-02 -1.470873e-02 1.728420e-02 
1.766957e-02 -2.770425e-03 1.584811e-02 
4.280965e-02 7.296469e-03 1.290809e-02 
6.773585e-02 1.874962e-02 1.409926e-02 
-5.285219e-02 -2.903308e-02 2.616176e-02 
-2.946077e-03 -1.116341e-02 1.447850e-02 
2.684741e-02 3.025528e-03 1.729021e-02 
5.202546e-02 1.211220e-02 1.159381e-02 
7.691510e-02 2.354848e-02 1.278319e-02 
-4.274280e-02 -2.559587e-02 1.987452e-02 
4.005094e-02 8.923740e-03 1.407492e-02 
6.503545e-02 1.941059e-02 1.251834e-02 
-5.606433e-02 -2.702024e-02 2.880786e-02 
-1.075807e-02 -1.133463e-02 1.681110e-02 
4.351812e-02 1.134433e-02 1.316802e-02 
6.847765e-02 2.231454e-02 1.298602e-02 
-5.183053e-02 -2.605289e-02 2.290507e-02 
-1.121047e-02 -1.020533e-02 1.710123e-02 
3.922578e-02 1.120070e-02 1.464831e-02 
6.425229e-02 2.119853e-02 1.171569e-02 
-5.695904e-02 -2.496948e-02 2.870027e-02 
-3.012635e-02 -1.730220e-02 1.720925e-02 
9.631524e-03 7.104689e-04 1.840949e-02 
3.479852e-02 1.227424e-02 1.961217e-02 
6.002867e-02 2.033187e-02 1.113128e-02 
-6.206031e-02 -2.409337e-02 3.385086e-02 
-3.439703e-02 -1.817862e-02 1.661829e-02 
4.441855e-03 -8.447183e-04 1.707663e-02 
5.483883e-02 1.927197e-02 1.118568e-02 
-6.780909e-02 -2.455472e-02 3.610008e-02 
-3.963643e-02 -1.950006e-02 1.598110e-02 
-1.807389e-03 -2.375287e-03 1.708967e-02 
2.339132e-02 8.946505e-03 1.759587e-02 
4.869475e-02 1.752357e-02 1.050919e-02 
7.360993e-02 2.846867e-02 1.033131e-02 
-4.584445e-02 -2.126668e-02 1.529760e-02 
-9.202582e-03 -3.654826e-03 1.915092e-02 
1.812412e-02 7.867957e-03 1.765563e-02 
4.349272e-02 1.646090e-02 1.056312e-02 
6.843901e-02 2.817651e-02 1.244166e-02 
-5.108380e-02 -2.258819e-02 1.466037e-02 
-1.651849e-02 -5.407402e-03 1.982000e-02 
1.196093e-02 5.862968e-03 1.627710e-02 
3.723782e-02 1.593618e-02 1.332210e-02 
6.228869e-02 2.617283e-02 1.107817e-02 
-1.058441e-03 1.224055e-03 1.596577e-02 
2.619268e-02 1.245445e-02 1.379264e-02 
5.135391e-02 2.196953e-02 9.487694e-03 
-4.323894e-02 -1.655119e-02 1.496032e-02 
-1.822273e-02 -4.272715e-03 1.825875e-02 
9.066283e-03 7.743038e-03 1.815987e-02 
3.445449e-02 1.758983e-02 1.449499e-02 
5.957596e-02 2.758885e-02 1.155453e-02 
-5.986330e-02 -1.833102e-02 2.653440e-02 
-3.304555e-02 -1.051905e-02 1.576007e-02 
-7.767360e-03 8.340698e-04 1.626835e-02 
2.044723e-02 1.301511e-02 1.552377e-02 
4.577666e-02 2.155629e-02 8.455413e-03 
7.071980e-02 3.430116e-02 1.307906e-02 
-4.613728e-02 -1.518400e-02 1.544737e-02 
-2.083048e-02 -3.819038e-03 1.595634e-02 
7.259270e-03 9.350676e-03 1.799904e-02 
3.260112e-02 1.994530e-02 1.641460e-02 
5.781734e-02 2.945137e-02 1.207822e-02 
-5.949458e-02 -1.649859e-02 2.433413e-02 
-3.189837e-02 -7.817029e-03 1.503996e-02 
-6.621088e-03 3.534219e-03 1.554880e-02 
2.630898e-02 1.892825e-02 1.782147e-02 
5.168252e-02 2.693496e-02 9.340320e-03 
-6.749234e-02 -1.441735e-02 3.587642e-02 
-3.520532e-02 -8.248934e-03 1.449458e-02 
-9.982139e-03 3.340706e-03 1.569985e-02 
2.109531e-02 1.735601e-02 1.648603e-02 
4.650395e-02 2.537303e-02 8.024982e-03 
7.146034e-02 3.761755e-02 1.127406e-02 
-4.053192e-02 -9.343417e-03 1.455205e-02 
-1.522931e-02 2.017258e-03 1.506165e-02 
1.383547e-02 1.563735e-02 1.715005e-02 
3.927739e-02 2.469115e-02 1.141678e-02 
6.432206e-02 3.830472e-02 1.816463e-02 
-4.700669e-02 -1.042915e-02 1.595904e-02 
-2.151183e-02 4.842380e-04 1.507319e-02 
5.581633e-03 1.346681e-02 1.776964e-02 
3.099233e-02 2.381155e-02 1.548756e-02 
5.620011e-02 3.460021e-02 1.460678e-02 
-5.847983e-02 -1.353326e-02 1.784127e-02 
-2.884611e-02 -1.262169e-03 1.573615e-02 
-3.566447e-03 1.035339e-02 1.694421e-02 
2.191109e-02 2.045895e-02 1.397093e-02 
4.721845e-02 2.945047e-02 8.278005e-03 
-7.084234e-02 -9.523812e-03 3.928507e-02 
-3.530434e-02 -2.331438e-03 1.714798e-02 
-9.797646e-03 8.580148e-03 1.625809e-02 
1.660206e-02 1.963836e-02 1.472276e-02 
4.198599e-02 2.864921e-02 9.016013e-03 
6.701024e-02 4.253292e-02 1.643509e-02 
-3.854785e-02 -2.999974e-03 1.590009e-02 
-1.213971e-02 8.594042e-03 1.575798e-02 
1.519856e-02 2.034829e-02 1.496599e-02 
4.061162e-02 2.936061e-02 9.253052e-03 
6.564525e-02 4.325949e-02 1.667924e-02 
-3.692139e-02 -1.432122e-03 1.488663e-02 
-1.064982e-02 1.063919e-02 1.614212e-02 
1.771237e-02 2.259089e-02 1.469865e-02 
4.308979e-02 3.184432e-02 9.674736e-03 
-3.043586e-02 2.367140e-03 1.410699e-02 
-5.262756e-03 1.447709e-02 1.671293e-02 
2.019197e-02 2.508803e-02 1.512753e-02 
4.557168e-02 3.433165e-02 1.009704e-02 
-6.817049e-02 -4.675999e-03 3.560368e-02 
-2.784634e-02 4.375131e-03 1.314283e-02 
-2.842578e-03 1.722726e-02 1.784628e-02 
2.264287e-02 2.784591e-02 1.625516e-02 
4.801706e-02 3.761018e-02 1.259220e-02 
-5.529059e-02 -4.677000e-03 1.777520e-02 
-2.831390e-02 5.522141e-03 1.343184e-02 
2.221266e-02 2.901128e-02 1.654668e-02 
4.760795e-02 3.877676e-02 1.287948e-02 
-5.480308e-02 -3.079252e-03 1.811636e-02 
-2.878213e-02 6.670806e-03 1.372126e-02 
-3.692094e-03 1.929891e-02 1.773105e-02 
2.178185e-02 3.017833e-02 1.683860e-02 
4.721228e-02 3.968003e-02 1.247392e-02 
-4.924333e-02 2.946633e-04 1.728293e-02 
-2.334174e-02 1.026130e-02 1.359260e-02 
1.764598e-03 2.290019e-02 1.760209e-02 
2.731326e-02 3.298738e-02 1.461461e-02 
5.260428e-02 4.378768e-02 1.373324e-02 
-4.255144e-02 3.631778e-03 1.509462e-02 
-1.680453e-02 1.380523e-02 1.211848e-02 
8.197197e-03 2.694996e-02 1.751971e-02 
3.381344e-02 3.596680e-02 1.175384e-02 
5.900439e-02 4.726856e-02 1.226436e-02 
-3.611882e-02 7.681453e-03 1.501220e-02 
-9.429079e-03 1.828318e-02 1.208288e-02 
1.568130e-02 3.092719e-02 1.608180e-02 
4.114836e-02 4.069727e-02 1.241154e-02 
-2.773437e-02 1.262812e-02 1.502317e-02 
-2.155518e-03 2.326839e-02 1.343924e-02 
2.320714e-02 3.436809e-02 1.325443e-02 
4.846796e-02 4.597497e-02 1.446155e-02 
-4.489048e-02 6.399739e-03 1.522236e-02 
-1.909456e-02 1.657585e-02 1.224119e-02 
6.114371e-03 2.871612e-02 1.484638e-02 
3.163123e-02 3.849774e-02 1.118237e-02 
5.685629e-02 4.926173e-02 1.031058e-02 
-3.739317e-02 1.065899e-02 1.448560e-02 
-1.176630e-02 2.131304e-02 1.290215e-02 
1.343303e-02 3.373186e-02 1.621093e-02 
3.894981e-02 4.350179e-02 1.253438e-02 
-2.907373e-02 1.585860e-02 1.519751e-02 
-3.504671e-03 2.676206e-02 1.430946e-02 
2.198283e-02 3.735208e-02 1.272894e-02 
4.724837e-02 4.924081e-02 1.463429e-02 
-4.477893e-02 8.608789e-03 1.124678e-02 
-1.963495e-02 2.100831e-02 1.455412e-02 
3.141185e-02 4.165712e-02 1.001044e-02 
-6.182142e-02 5.001399e-03 1.780812e-02 
-3.550852e-02 1.424328e-02 1.200121e-02 
-1.009611e-02 2.563728e-02 1.251497e-02 
1.508762e-02 3.834135e-02 1.652712e-02 
4.059570e-02 4.864723e-02 1.423775e-02 
-5.071013e-02 8.919584e-03 1.228904e-02 
-2.552284e-02 2.134778e-02 1.560629e-02 
-2.252589e-05 3.277917e-02 1.611931e-02 
2.568208e-02 4.204018e-02 1.104466e-02 
5.094290e-02 5.364706e-02 1.225178e-02 
-4.094143e-02 1.308226e-02 8.865716e-03 
-1.582644e-02 2.547322e-02 1.216281e-02 
9.401539e-03 3.792011e-02 1.547472e-02 
3.500066e-02 4.741102e-02 1.110192e-02 
-5.578071e-02 9.926914e-03 1.408458e-02 
-3.016620e-02 2.112167e-02 1.389753e-02 
-4.628515e-03 3.228291e-02 1.371099e-02 
2.093419e-02 4.260370e-02 1.143393e-02 
-4.214110e-02 1.614138e-02 1.152842e-02 
-1.668567e-02 2.755105e-02 1.204332e-02 
8.645594e-03 3.947701e-02 1.395535e-02 
3.415876e-02 4.977087e-02 1.167730e-02 
-4.981150e-02 1.515559e-02 1.429392e-02 
-2.411894e-02 2.609334e-02 1.340525e-02 
1.263848e-03 3.804505e-02 1.532264e-02 
2.703739e-02 4.673491e-02 8.863282e-03 
-5.422413e-02 1.451786e-02 1.439891e-02 
-2.864470e-02 2.598031e-02 1.491398e-02 
-3.155808e-03 3.769202e-02 1.613190e-02 
2.266002e-02 4.666902e-02 1.035058e-02 
-5.177068e-02 1.703710e-02 1.483247e-02 
-2.526156e-02 2.921761e-02 1.609923e-02 
7.359874e-03 4.275019e-02 1.412828e-02 
3.271613e-02 5.527349e-02 1.745461e-02 
6.871064e-03 4.420501e-02 1.512243e-02 
1.234827e-02 4.781978e-02 1.499293e-02 
2.201055e-02 -3.254672e-02 3.710297e-02 
5.768680e-02 -1.549692e-02 2.528422e-02 
4.261844e-02 -2.459253e-02 2.064143e-02 
2.423249e-04 -4.302198e-02 3.629031e-02 
4.019806e-02 -2.501793e-02 1.981948e-02 
6.483232e-02 -1.233667e-02 1.444546e-02 
5.325909e-03 -3.913939e-02 3.513442e-02 
4.458206e-02 -2.061696e-02 2.150663e-02 
6.818069e-02 -8.957872e-03 1.489391e-02 
5.745183e-03 -3.778606e-02 3.460834e-02 
3.924967e-02 -2.307890e-02 1.970354e-02 
6.289968e-02 -1.116422e-02 1.378057e-02 
