# .PCD v.6 - Point Cloud Data file format
FIELDS x y z 
SIZE 4 4 4 
TYPE F F F 
COUNT 1 1 1 
WIDTH 1164
HEIGHT 1
POINTS 1164
DATA ascii
4.000000e-02 -1.706100e-03 -6.633100e-02 
4.000000e-02 -1.706100e-03 -6.293000e-02 
4.000000e-02 -1.706100e-03 -5.952800e-02 
4.000000e-02 -1.706100e-03 -5.612600e-02 
4.000000e-02 -1.706100e-03 -5.272500e-02 
4.000000e-02 -1.706100e-03 -4.932300e-02 
4.000000e-02 -1.706100e-03 -4.592200e-02 
4.000000e-02 -1.706100e-03 -4.252000e-02 
4.000000e-02 -1.706100e-03 -3.911800e-02 
4.000000e-02 -1.706100e-03 -3.571700e-02 
4.000000e-02 -1.706100e-03 -3.231500e-02 
4.000000e-02 -1.706100e-03 -2.891400e-02 
4.000000e-02 -1.706100e-03 -2.551200e-02 
4.000000e-02 -1.706100e-03 -2.211000e-02 
4.000000e-02 -1.706100e-03 -1.870900e-02 
4.000000e-02 -1.706100e-03 -1.530700e-02 
4.000000e-02 -1.706100e-03 -1.190600e-02 
4.000000e-02 -1.706100e-03 -8.504000e-03 
4.000000e-02 -1.706100e-03 -5.102400e-03 
4.000000e-02 -1.706100e-03 -1.700800e-03 
4.000000e-02 -1.706100e-03 1.700800e-03 
4.000000e-02 -1.706100e-03 5.102400e-03 
4.000000e-02 -1.706100e-03 8.504000e-03 
4.000000e-02 -1.706100e-03 1.190600e-02 
4.000000e-02 -1.706100e-03 1.530700e-02 
4.000000e-02 -1.706100e-03 1.870900e-02 
4.000000e-02 -1.706100e-03 2.211000e-02 
4.000000e-02 -1.706100e-03 2.551200e-02 
4.000000e-02 -1.706100e-03 2.891400e-02 
4.000000e-02 -1.706100e-03 3.231500e-02 
4.000000e-02 -1.706100e-03 3.571700e-02 
4.000000e-02 -1.706100e-03 3.911800e-02 
4.000000e-02 -1.706100e-03 4.252000e-02 
4.000000e-02 -1.706100e-03 4.592200e-02 
4.000000e-02 -1.706100e-03 4.932300e-02 
4.000000e-02 -1.706100e-03 5.272500e-02 
4.000000e-02 -1.706100e-03 5.612600e-02 
4.000000e-02 -1.706100e-03 5.952800e-02 
4.000000e-02 -1.706100e-03 6.293000e-02 
4.000000e-02 -1.706100e-03 6.633100e-02 
3.982900e-02 -1.706100e-03 6.973300e-02 
-3.954700e-02 1.706100e-03 -7.000000e-02 
-3.982900e-02 1.706100e-03 -6.973300e-02 
-4.000000e-02 1.706100e-03 -6.633100e-02 
-4.000000e-02 1.706100e-03 -6.293000e-02 
-4.000000e-02 1.706100e-03 -5.952800e-02 
-4.000000e-02 1.706100e-03 -5.612600e-02 
-4.000000e-02 1.706100e-03 -5.272500e-02 
-4.000000e-02 1.706100e-03 -4.932300e-02 
-4.000000e-02 1.706100e-03 -4.592200e-02 
-4.000000e-02 1.706100e-03 -4.252000e-02 
-4.000000e-02 1.706100e-03 -3.911800e-02 
-4.000000e-02 1.706100e-03 -3.571700e-02 
-4.000000e-02 1.706100e-03 -3.231500e-02 
-4.000000e-02 1.706100e-03 -2.891400e-02 
-4.000000e-02 1.706100e-03 -2.551200e-02 
-4.000000e-02 1.706100e-03 -2.211000e-02 
-4.000000e-02 1.706100e-03 -1.870900e-02 
-4.000000e-02 1.706100e-03 -1.530700e-02 
-4.000000e-02 1.706100e-03 -1.190600e-02 
-4.000000e-02 1.706100e-03 -8.504000e-03 
-4.000000e-02 1.706100e-03 -5.102400e-03 
-4.000000e-02 1.706100e-03 -1.700800e-03 
-4.000000e-02 1.706100e-03 1.700800e-03 
-4.000000e-02 1.706100e-03 5.102400e-03 
-4.000000e-02 1.706100e-03 8.504000e-03 
-4.000000e-02 1.706100e-03 1.190600e-02 
-4.000000e-02 1.706100e-03 1.530700e-02 
-4.000000e-02 1.706100e-03 1.870900e-02 
-4.000000e-02 1.706100e-03 2.211000e-02 
-4.000000e-02 1.706100e-03 2.551200e-02 
-4.000000e-02 1.706100e-03 2.891400e-02 
-4.000000e-02 1.706100e-03 3.231500e-02 
-4.000000e-02 1.706100e-03 3.571700e-02 
-4.000000e-02 1.706100e-03 3.911800e-02 
-4.000000e-02 1.706100e-03 4.252000e-02 
-4.000000e-02 1.706100e-03 4.592200e-02 
-4.000000e-02 1.706100e-03 4.932300e-02 
-4.000000e-02 1.706100e-03 5.272500e-02 
-4.000000e-02 1.706100e-03 5.612600e-02 
-4.000000e-02 1.706100e-03 5.952800e-02 
-4.000000e-02 1.706100e-03 6.293000e-02 
-4.000000e-02 1.706100e-03 6.633100e-02 
-3.982900e-02 1.706100e-03 6.973300e-02 
-3.954700e-02 1.706100e-03 7.000000e-02 
-3.610800e-02 1.706100e-03 -7.000000e-02 
-3.610800e-02 1.706100e-03 7.000000e-02 
-3.266900e-02 1.706100e-03 -7.000000e-02 
-3.266900e-02 1.706100e-03 7.000000e-02 
-2.923000e-02 1.706100e-03 -7.000000e-02 
-2.923000e-02 1.706100e-03 7.000000e-02 
-2.579100e-02 1.706100e-03 -7.000000e-02 
-2.579100e-02 1.706100e-03 7.000000e-02 
-2.235200e-02 1.706100e-03 -7.000000e-02 
-2.235200e-02 1.706100e-03 7.000000e-02 
-1.891400e-02 1.706100e-03 -7.000000e-02 
-1.891400e-02 1.706100e-03 7.000000e-02 
-1.547500e-02 1.706100e-03 -7.000000e-02 
-1.547500e-02 1.706100e-03 7.000000e-02 
-1.203600e-02 1.706100e-03 -7.000000e-02 
-1.203600e-02 1.706100e-03 7.000000e-02 
-8.597100e-03 1.706100e-03 -7.000000e-02 
-8.597100e-03 1.706100e-03 7.000000e-02 
-5.158200e-03 1.706100e-03 -7.000000e-02 
-5.158200e-03 1.706100e-03 7.000000e-02 
-1.719400e-03 1.706100e-03 -7.000000e-02 
-1.719400e-03 1.706100e-03 7.000000e-02 
1.719400e-03 1.706100e-03 -7.000000e-02 
1.719400e-03 1.706100e-03 7.000000e-02 
5.158200e-03 1.706100e-03 -7.000000e-02 
5.158200e-03 1.706100e-03 7.000000e-02 
8.597100e-03 1.706100e-03 -7.000000e-02 
8.597100e-03 1.706100e-03 7.000000e-02 
1.203600e-02 1.706100e-03 -7.000000e-02 
1.203600e-02 1.706100e-03 7.000000e-02 
1.547500e-02 1.706100e-03 -7.000000e-02 
1.547500e-02 1.706100e-03 7.000000e-02 
1.891400e-02 1.706100e-03 -7.000000e-02 
1.891400e-02 1.706100e-03 7.000000e-02 
2.235200e-02 1.706100e-03 -7.000000e-02 
2.235200e-02 1.706100e-03 7.000000e-02 
2.579100e-02 1.706100e-03 -7.000000e-02 
2.579100e-02 1.706100e-03 7.000000e-02 
2.923000e-02 1.706100e-03 -7.000000e-02 
2.923000e-02 1.706100e-03 7.000000e-02 
3.266900e-02 1.706100e-03 -7.000000e-02 
3.266900e-02 1.706100e-03 7.000000e-02 
3.610800e-02 1.706100e-03 -7.000000e-02 
3.610800e-02 1.706100e-03 7.000000e-02 
3.954700e-02 1.706100e-03 -7.000000e-02 
3.954700e-02 1.706100e-03 7.000000e-02 
3.982900e-02 1.706100e-03 -6.973300e-02 
4.000000e-02 1.706100e-03 -6.633100e-02 
4.000000e-02 1.706100e-03 -6.293000e-02 
4.000000e-02 1.706100e-03 -5.952800e-02 
4.000000e-02 1.706100e-03 -5.612600e-02 
4.000000e-02 1.706100e-03 -5.272500e-02 
4.000000e-02 1.706100e-03 -4.932300e-02 
4.000000e-02 1.706100e-03 -4.592200e-02 
4.000000e-02 1.706100e-03 -4.252000e-02 
4.000000e-02 1.706100e-03 -3.911800e-02 
4.000000e-02 1.706100e-03 -3.571700e-02 
4.000000e-02 1.706100e-03 -3.231500e-02 
4.000000e-02 1.706100e-03 -2.891400e-02 
4.000000e-02 1.706100e-03 -2.551200e-02 
4.000000e-02 1.706100e-03 -2.211000e-02 
4.000000e-02 1.706100e-03 -1.870900e-02 
4.000000e-02 1.706100e-03 -1.530700e-02 
4.000000e-02 1.706100e-03 -1.190600e-02 
4.000000e-02 1.706100e-03 -8.504000e-03 
4.000000e-02 1.706100e-03 -5.102400e-03 
4.000000e-02 1.706100e-03 -1.700800e-03 
4.000000e-02 1.706100e-03 1.700800e-03 
4.000000e-02 1.706100e-03 5.102400e-03 
4.000000e-02 1.706100e-03 8.504000e-03 
4.000000e-02 1.706100e-03 1.190600e-02 
4.000000e-02 1.706100e-03 1.530700e-02 
4.000000e-02 1.706100e-03 1.870900e-02 
4.000000e-02 1.706100e-03 2.211000e-02 
4.000000e-02 1.706100e-03 2.551200e-02 
4.000000e-02 1.706100e-03 2.891400e-02 
4.000000e-02 1.706100e-03 3.231500e-02 
4.000000e-02 1.706100e-03 3.571700e-02 
4.000000e-02 1.706100e-03 3.911800e-02 
4.000000e-02 1.706100e-03 4.252000e-02 
4.000000e-02 1.706100e-03 4.592200e-02 
4.000000e-02 1.706100e-03 4.932300e-02 
4.000000e-02 1.706100e-03 5.272500e-02 
4.000000e-02 1.706100e-03 5.612600e-02 
4.000000e-02 1.706100e-03 5.952800e-02 
4.000000e-02 1.706100e-03 6.293000e-02 
4.000000e-02 1.706100e-03 6.633100e-02 
3.982900e-02 1.706100e-03 6.973300e-02 
-3.954700e-02 5.118300e-03 -7.000000e-02 
-3.982900e-02 5.118300e-03 -6.973300e-02 
-4.000000e-02 5.118300e-03 -6.633100e-02 
-4.000000e-02 5.118300e-03 -6.293000e-02 
-4.000000e-02 5.118300e-03 -5.952800e-02 
-4.000000e-02 5.118300e-03 -5.612600e-02 
-4.000000e-02 5.118300e-03 -5.272500e-02 
-4.000000e-02 5.118300e-03 -4.932300e-02 
-4.000000e-02 5.118300e-03 -4.592200e-02 
-4.000000e-02 5.118300e-03 -4.252000e-02 
-4.000000e-02 5.118300e-03 -3.911800e-02 
-4.000000e-02 5.118300e-03 -3.571700e-02 
-4.000000e-02 5.118300e-03 -3.231500e-02 
-4.000000e-02 5.118300e-03 -2.891400e-02 
-4.000000e-02 5.118300e-03 -2.551200e-02 
-4.000000e-02 5.118300e-03 -2.211000e-02 
-4.000000e-02 5.118300e-03 -1.870900e-02 
-4.000000e-02 5.118300e-03 -1.530700e-02 
-4.000000e-02 5.118300e-03 -1.190600e-02 
-4.000000e-02 5.118300e-03 -8.504000e-03 
-4.000000e-02 5.118300e-03 -5.102400e-03 
-4.000000e-02 5.118300e-03 -1.700800e-03 
-4.000000e-02 5.118300e-03 1.700800e-03 
-4.000000e-02 5.118300e-03 5.102400e-03 
-4.000000e-02 5.118300e-03 8.504000e-03 
-4.000000e-02 5.118300e-03 1.190600e-02 
-4.000000e-02 5.118300e-03 1.530700e-02 
-4.000000e-02 5.118300e-03 1.870900e-02 
-4.000000e-02 5.118300e-03 2.211000e-02 
-4.000000e-02 5.118300e-03 2.551200e-02 
-4.000000e-02 5.118300e-03 2.891400e-02 
-4.000000e-02 5.118300e-03 3.231500e-02 
-4.000000e-02 5.118300e-03 3.571700e-02 
-4.000000e-02 5.118300e-03 3.911800e-02 
-4.000000e-02 5.118300e-03 4.252000e-02 
-4.000000e-02 5.118300e-03 4.592200e-02 
-4.000000e-02 5.118300e-03 4.932300e-02 
-4.000000e-02 5.118300e-03 5.272500e-02 
-4.000000e-02 5.118300e-03 5.612600e-02 
-4.000000e-02 5.118300e-03 5.952800e-02 
-4.000000e-02 5.118300e-03 6.293000e-02 
-4.000000e-02 5.118300e-03 6.633100e-02 
-3.982900e-02 5.118300e-03 6.973300e-02 
-3.954700e-02 5.118300e-03 7.000000e-02 
-3.610800e-02 5.118300e-03 -7.000000e-02 
-3.610800e-02 5.118300e-03 7.000000e-02 
-3.266900e-02 5.118300e-03 -7.000000e-02 
-3.266900e-02 5.118300e-03 7.000000e-02 
-2.923000e-02 5.118300e-03 -7.000000e-02 
-2.923000e-02 5.118300e-03 7.000000e-02 
-2.579100e-02 5.118300e-03 -7.000000e-02 
-2.579100e-02 5.118300e-03 7.000000e-02 
-2.235200e-02 5.118300e-03 -7.000000e-02 
-2.235200e-02 5.118300e-03 7.000000e-02 
-1.891400e-02 5.118300e-03 -7.000000e-02 
-1.891400e-02 5.118300e-03 7.000000e-02 
-1.547500e-02 5.118300e-03 -7.000000e-02 
-1.547500e-02 5.118300e-03 7.000000e-02 
-1.203600e-02 5.118300e-03 -7.000000e-02 
-1.203600e-02 5.118300e-03 7.000000e-02 
-8.597100e-03 5.118300e-03 -7.000000e-02 
-8.597100e-03 5.118300e-03 7.000000e-02 
-5.158200e-03 5.118300e-03 -7.000000e-02 
-5.158200e-03 5.118300e-03 7.000000e-02 
-1.719400e-03 5.118300e-03 -7.000000e-02 
-1.719400e-03 5.118300e-03 7.000000e-02 
1.719400e-03 5.118300e-03 -7.000000e-02 
1.719400e-03 5.118300e-03 7.000000e-02 
5.158200e-03 5.118300e-03 -7.000000e-02 
5.158200e-03 5.118300e-03 7.000000e-02 
8.597100e-03 5.118300e-03 -7.000000e-02 
8.597100e-03 5.118300e-03 7.000000e-02 
1.203600e-02 5.118300e-03 -7.000000e-02 
1.203600e-02 5.118300e-03 7.000000e-02 
1.547500e-02 5.118300e-03 -7.000000e-02 
1.547500e-02 5.118300e-03 7.000000e-02 
1.891400e-02 5.118300e-03 -7.000000e-02 
1.891400e-02 5.118300e-03 7.000000e-02 
2.235200e-02 5.118300e-03 -7.000000e-02 
2.235200e-02 5.118300e-03 7.000000e-02 
2.579100e-02 5.118300e-03 -7.000000e-02 
2.579100e-02 5.118300e-03 7.000000e-02 
2.923000e-02 5.118300e-03 -7.000000e-02 
2.923000e-02 5.118300e-03 7.000000e-02 
3.266900e-02 5.118300e-03 -7.000000e-02 
3.266900e-02 5.118300e-03 7.000000e-02 
3.610800e-02 5.118300e-03 -7.000000e-02 
3.610800e-02 5.118300e-03 7.000000e-02 
3.954700e-02 5.118300e-03 -7.000000e-02 
3.954700e-02 5.118300e-03 7.000000e-02 
3.982900e-02 5.118300e-03 -6.973300e-02 
4.000000e-02 5.118300e-03 -6.633100e-02 
4.000000e-02 5.118300e-03 -6.293000e-02 
4.000000e-02 5.118300e-03 -5.952800e-02 
4.000000e-02 5.118300e-03 -5.612600e-02 
4.000000e-02 5.118300e-03 -5.272500e-02 
4.000000e-02 5.118300e-03 -4.932300e-02 
4.000000e-02 5.118300e-03 -4.592200e-02 
4.000000e-02 5.118300e-03 -4.252000e-02 
4.000000e-02 5.118300e-03 -3.911800e-02 
4.000000e-02 5.118300e-03 -3.571700e-02 
4.000000e-02 5.118300e-03 -3.231500e-02 
4.000000e-02 5.118300e-03 -2.891400e-02 
4.000000e-02 5.118300e-03 -2.551200e-02 
4.000000e-02 5.118300e-03 -2.211000e-02 
4.000000e-02 5.118300e-03 -1.870900e-02 
4.000000e-02 5.118300e-03 -1.530700e-02 
4.000000e-02 5.118300e-03 -1.190600e-02 
4.000000e-02 5.118300e-03 -8.504000e-03 
4.000000e-02 5.118300e-03 -5.102400e-03 
4.000000e-02 5.118300e-03 -1.700800e-03 
4.000000e-02 5.118300e-03 1.700800e-03 
4.000000e-02 5.118300e-03 5.102400e-03 
4.000000e-02 5.118300e-03 8.504000e-03 
4.000000e-02 5.118300e-03 1.190600e-02 
4.000000e-02 5.118300e-03 1.530700e-02 
4.000000e-02 5.118300e-03 1.870900e-02 
4.000000e-02 5.118300e-03 2.211000e-02 
4.000000e-02 5.118300e-03 2.551200e-02 
4.000000e-02 5.118300e-03 2.891400e-02 
4.000000e-02 5.118300e-03 3.231500e-02 
4.000000e-02 5.118300e-03 3.571700e-02 
4.000000e-02 5.118300e-03 3.911800e-02 
4.000000e-02 5.118300e-03 4.252000e-02 
4.000000e-02 5.118300e-03 4.592200e-02 
4.000000e-02 5.118300e-03 4.932300e-02 
4.000000e-02 5.118300e-03 5.272500e-02 
4.000000e-02 5.118300e-03 5.612600e-02 
4.000000e-02 5.118300e-03 5.952800e-02 
4.000000e-02 5.118300e-03 6.293000e-02 
4.000000e-02 5.118300e-03 6.633100e-02 
3.982900e-02 5.118300e-03 6.973300e-02 
-3.954700e-02 8.530600e-03 -7.000000e-02 
-3.982900e-02 8.530600e-03 -6.973300e-02 
-4.000000e-02 8.530600e-03 -6.633100e-02 
-4.000000e-02 8.530600e-03 -6.293000e-02 
-4.000000e-02 8.530600e-03 -5.952800e-02 
-4.000000e-02 8.530600e-03 -5.612600e-02 
-4.000000e-02 8.530600e-03 -5.272500e-02 
-4.000000e-02 8.530600e-03 -4.932300e-02 
-4.000000e-02 8.530600e-03 -4.592200e-02 
-4.000000e-02 8.530600e-03 -4.252000e-02 
-4.000000e-02 8.530600e-03 -3.911800e-02 
-4.000000e-02 8.530600e-03 -3.571700e-02 
-4.000000e-02 8.530600e-03 -3.231500e-02 
-4.000000e-02 8.530600e-03 -2.891400e-02 
-4.000000e-02 8.530600e-03 -2.551200e-02 
-4.000000e-02 8.530600e-03 -2.211000e-02 
-4.000000e-02 8.530600e-03 -1.870900e-02 
-4.000000e-02 8.530600e-03 -1.530700e-02 
-4.000000e-02 8.530600e-03 -1.190600e-02 
-4.000000e-02 8.530600e-03 -8.504000e-03 
-4.000000e-02 8.530600e-03 -5.102400e-03 
-4.000000e-02 8.530600e-03 -1.700800e-03 
-4.000000e-02 8.530600e-03 1.700800e-03 
-4.000000e-02 8.530600e-03 5.102400e-03 
-4.000000e-02 8.530600e-03 8.504000e-03 
-4.000000e-02 8.530600e-03 1.190600e-02 
-4.000000e-02 8.530600e-03 1.530700e-02 
-4.000000e-02 8.530600e-03 1.870900e-02 
-4.000000e-02 8.530600e-03 2.211000e-02 
-4.000000e-02 8.530600e-03 2.551200e-02 
-4.000000e-02 8.530600e-03 2.891400e-02 
-4.000000e-02 8.530600e-03 3.231500e-02 
-4.000000e-02 8.530600e-03 3.571700e-02 
-4.000000e-02 8.530600e-03 3.911800e-02 
-4.000000e-02 8.530600e-03 4.252000e-02 
-4.000000e-02 8.530600e-03 4.592200e-02 
-4.000000e-02 8.530600e-03 4.932300e-02 
-4.000000e-02 8.530600e-03 5.272500e-02 
-4.000000e-02 8.530600e-03 5.612600e-02 
-4.000000e-02 8.530600e-03 5.952800e-02 
-4.000000e-02 8.530600e-03 6.293000e-02 
-4.000000e-02 8.530600e-03 6.633100e-02 
-3.982900e-02 8.530600e-03 6.973300e-02 
-3.954700e-02 8.530600e-03 7.000000e-02 
-3.610800e-02 8.530600e-03 -7.000000e-02 
-3.610800e-02 8.530600e-03 7.000000e-02 
-3.266900e-02 8.530600e-03 -7.000000e-02 
-3.266900e-02 8.530600e-03 7.000000e-02 
-2.923000e-02 8.530600e-03 -7.000000e-02 
-2.923000e-02 8.530600e-03 7.000000e-02 
-2.579100e-02 8.530600e-03 -7.000000e-02 
-2.579100e-02 8.530600e-03 7.000000e-02 
-2.235200e-02 8.530600e-03 -7.000000e-02 
-2.235200e-02 8.530600e-03 7.000000e-02 
-1.891400e-02 8.530600e-03 -7.000000e-02 
-1.891400e-02 8.530600e-03 7.000000e-02 
-1.547500e-02 8.530600e-03 -7.000000e-02 
-1.547500e-02 8.530600e-03 7.000000e-02 
-1.203600e-02 8.530600e-03 -7.000000e-02 
-1.203600e-02 8.530600e-03 7.000000e-02 
-8.597100e-03 8.530600e-03 -7.000000e-02 
-8.597100e-03 8.530600e-03 7.000000e-02 
-5.158200e-03 8.530600e-03 -7.000000e-02 
-5.158200e-03 8.530600e-03 7.000000e-02 
-1.719400e-03 8.530600e-03 -7.000000e-02 
-1.719400e-03 8.530600e-03 7.000000e-02 
1.719400e-03 8.530600e-03 -7.000000e-02 
1.719400e-03 8.530600e-03 7.000000e-02 
5.158200e-03 8.530600e-03 -7.000000e-02 
5.158200e-03 8.530600e-03 7.000000e-02 
8.597100e-03 8.530600e-03 -7.000000e-02 
8.597100e-03 8.530600e-03 7.000000e-02 
1.203600e-02 8.530600e-03 -7.000000e-02 
1.203600e-02 8.530600e-03 7.000000e-02 
1.547500e-02 8.530600e-03 -7.000000e-02 
1.547500e-02 8.530600e-03 7.000000e-02 
1.891400e-02 8.530600e-03 -7.000000e-02 
1.891400e-02 8.530600e-03 7.000000e-02 
2.235200e-02 8.530600e-03 -7.000000e-02 
2.235200e-02 8.530600e-03 7.000000e-02 
2.579100e-02 8.530600e-03 -7.000000e-02 
2.579100e-02 8.530600e-03 7.000000e-02 
2.923000e-02 8.530600e-03 -7.000000e-02 
2.923000e-02 8.530600e-03 7.000000e-02 
3.266900e-02 8.530600e-03 -7.000000e-02 
3.266900e-02 8.530600e-03 7.000000e-02 
3.610800e-02 8.530600e-03 -7.000000e-02 
3.610800e-02 8.530600e-03 7.000000e-02 
3.954700e-02 8.530600e-03 -7.000000e-02 
3.954700e-02 8.530600e-03 7.000000e-02 
3.982900e-02 8.530600e-03 -6.973300e-02 
4.000000e-02 8.530600e-03 -6.633100e-02 
4.000000e-02 8.530600e-03 -6.293000e-02 
4.000000e-02 8.530600e-03 -5.952800e-02 
4.000000e-02 8.530600e-03 -5.612600e-02 
4.000000e-02 8.530600e-03 -5.272500e-02 
4.000000e-02 8.530600e-03 -4.932300e-02 
4.000000e-02 8.530600e-03 -4.592200e-02 
4.000000e-02 8.530600e-03 -4.252000e-02 
4.000000e-02 8.530600e-03 -3.911800e-02 
4.000000e-02 8.530600e-03 -3.571700e-02 
4.000000e-02 8.530600e-03 -3.231500e-02 
4.000000e-02 8.530600e-03 -2.891400e-02 
4.000000e-02 8.530600e-03 -2.551200e-02 
4.000000e-02 8.530600e-03 -2.211000e-02 
4.000000e-02 8.530600e-03 -1.870900e-02 
4.000000e-02 8.530600e-03 -1.530700e-02 
4.000000e-02 8.530600e-03 -1.190600e-02 
4.000000e-02 8.530600e-03 -8.504000e-03 
4.000000e-02 8.530600e-03 -5.102400e-03 
4.000000e-02 8.530600e-03 -1.700800e-03 
4.000000e-02 8.530600e-03 1.700800e-03 
4.000000e-02 8.530600e-03 5.102400e-03 
4.000000e-02 8.530600e-03 8.504000e-03 
4.000000e-02 8.530600e-03 1.190600e-02 
4.000000e-02 8.530600e-03 1.530700e-02 
4.000000e-02 8.530600e-03 1.870900e-02 
4.000000e-02 8.530600e-03 2.211000e-02 
4.000000e-02 8.530600e-03 2.551200e-02 
4.000000e-02 8.530600e-03 2.891400e-02 
4.000000e-02 8.530600e-03 3.231500e-02 
4.000000e-02 8.530600e-03 3.571700e-02 
4.000000e-02 8.530600e-03 3.911800e-02 
4.000000e-02 8.530600e-03 4.252000e-02 
4.000000e-02 8.530600e-03 4.592200e-02 
4.000000e-02 8.530600e-03 4.932300e-02 
4.000000e-02 8.530600e-03 5.272500e-02 
4.000000e-02 8.530600e-03 5.612600e-02 
4.000000e-02 8.530600e-03 5.952800e-02 
4.000000e-02 8.530600e-03 6.293000e-02 
4.000000e-02 8.530600e-03 6.633100e-02 
3.982900e-02 8.530600e-03 6.973300e-02 
-3.954700e-02 1.194300e-02 -7.000000e-02 
-3.982900e-02 1.194300e-02 -6.973300e-02 
-4.000000e-02 1.194300e-02 -6.633100e-02 
-4.000000e-02 1.194300e-02 -6.293000e-02 
-4.000000e-02 1.194300e-02 -5.952800e-02 
-4.000000e-02 1.194300e-02 -5.612600e-02 
-4.000000e-02 1.194300e-02 -5.272500e-02 
-4.000000e-02 1.194300e-02 -4.932300e-02 
-4.000000e-02 1.194300e-02 -4.592200e-02 
-4.000000e-02 1.194300e-02 -4.252000e-02 
-4.000000e-02 1.194300e-02 -3.911800e-02 
-4.000000e-02 1.194300e-02 -3.571700e-02 
-4.000000e-02 1.194300e-02 -3.231500e-02 
-4.000000e-02 1.194300e-02 -2.891400e-02 
-4.000000e-02 1.194300e-02 -2.551200e-02 
-4.000000e-02 1.194300e-02 -2.211000e-02 
-4.000000e-02 1.194300e-02 -1.870900e-02 
-4.000000e-02 1.194300e-02 -1.530700e-02 
-4.000000e-02 1.194300e-02 -1.190600e-02 
-4.000000e-02 1.194300e-02 -8.504000e-03 
-4.000000e-02 1.194300e-02 -5.102400e-03 
-4.000000e-02 1.194300e-02 -1.700800e-03 
-4.000000e-02 1.194300e-02 1.700800e-03 
-4.000000e-02 1.194300e-02 5.102400e-03 
-4.000000e-02 1.194300e-02 8.504000e-03 
-4.000000e-02 1.194300e-02 1.190600e-02 
-4.000000e-02 1.194300e-02 1.530700e-02 
-4.000000e-02 1.194300e-02 1.870900e-02 
-4.000000e-02 1.194300e-02 2.211000e-02 
-4.000000e-02 1.194300e-02 2.551200e-02 
-4.000000e-02 1.194300e-02 2.891400e-02 
-4.000000e-02 1.194300e-02 3.231500e-02 
-4.000000e-02 1.194300e-02 3.571700e-02 
-4.000000e-02 1.194300e-02 3.911800e-02 
-4.000000e-02 1.194300e-02 4.252000e-02 
-4.000000e-02 1.194300e-02 4.592200e-02 
-4.000000e-02 1.194300e-02 4.932300e-02 
-4.000000e-02 1.194300e-02 5.272500e-02 
-4.000000e-02 1.194300e-02 5.612600e-02 
-4.000000e-02 1.194300e-02 5.952800e-02 
-4.000000e-02 1.194300e-02 6.293000e-02 
-4.000000e-02 1.194300e-02 6.633100e-02 
-3.982900e-02 1.194300e-02 6.973300e-02 
-3.954700e-02 1.194300e-02 7.000000e-02 
-3.610800e-02 1.194300e-02 -7.000000e-02 
-3.610800e-02 1.194300e-02 7.000000e-02 
-3.266900e-02 1.194300e-02 -7.000000e-02 
-3.266900e-02 1.194300e-02 7.000000e-02 
-2.923000e-02 1.194300e-02 -7.000000e-02 
-2.923000e-02 1.194300e-02 7.000000e-02 
-2.579100e-02 1.194300e-02 -7.000000e-02 
-2.579100e-02 1.194300e-02 7.000000e-02 
-2.235200e-02 1.194300e-02 -7.000000e-02 
-2.235200e-02 1.194300e-02 7.000000e-02 
-1.891400e-02 1.194300e-02 -7.000000e-02 
-1.891400e-02 1.194300e-02 7.000000e-02 
-1.547500e-02 1.194300e-02 -7.000000e-02 
-1.547500e-02 1.194300e-02 7.000000e-02 
-1.203600e-02 1.194300e-02 -7.000000e-02 
-1.203600e-02 1.194300e-02 7.000000e-02 
-8.597100e-03 1.194300e-02 -7.000000e-02 
-8.597100e-03 1.194300e-02 7.000000e-02 
-5.158200e-03 1.194300e-02 -7.000000e-02 
-5.158200e-03 1.194300e-02 7.000000e-02 
-1.719400e-03 1.194300e-02 -7.000000e-02 
-1.719400e-03 1.194300e-02 7.000000e-02 
1.719400e-03 1.194300e-02 -7.000000e-02 
1.719400e-03 1.194300e-02 7.000000e-02 
5.158200e-03 1.194300e-02 -7.000000e-02 
5.158200e-03 1.194300e-02 7.000000e-02 
8.597100e-03 1.194300e-02 -7.000000e-02 
8.597100e-03 1.194300e-02 7.000000e-02 
1.203600e-02 1.194300e-02 -7.000000e-02 
1.203600e-02 1.194300e-02 7.000000e-02 
1.547500e-02 1.194300e-02 -7.000000e-02 
1.547500e-02 1.194300e-02 7.000000e-02 
1.891400e-02 1.194300e-02 -7.000000e-02 
1.891400e-02 1.194300e-02 7.000000e-02 
2.235200e-02 1.194300e-02 -7.000000e-02 
2.235200e-02 1.194300e-02 7.000000e-02 
2.579100e-02 1.194300e-02 -7.000000e-02 
2.579100e-02 1.194300e-02 7.000000e-02 
2.923000e-02 1.194300e-02 -7.000000e-02 
2.923000e-02 1.194300e-02 7.000000e-02 
3.266900e-02 1.194300e-02 -7.000000e-02 
3.266900e-02 1.194300e-02 7.000000e-02 
3.610800e-02 1.194300e-02 -7.000000e-02 
3.610800e-02 1.194300e-02 7.000000e-02 
3.954700e-02 1.194300e-02 -7.000000e-02 
3.954700e-02 1.194300e-02 7.000000e-02 
3.982900e-02 1.194300e-02 -6.973300e-02 
4.000000e-02 1.194300e-02 -6.633100e-02 
4.000000e-02 1.194300e-02 -6.293000e-02 
4.000000e-02 1.194300e-02 -5.952800e-02 
4.000000e-02 1.194300e-02 -5.612600e-02 
4.000000e-02 1.194300e-02 -5.272500e-02 
4.000000e-02 1.194300e-02 -4.932300e-02 
4.000000e-02 1.194300e-02 -4.592200e-02 
4.000000e-02 1.194300e-02 -4.252000e-02 
4.000000e-02 1.194300e-02 -3.911800e-02 
4.000000e-02 1.194300e-02 -3.571700e-02 
4.000000e-02 1.194300e-02 -3.231500e-02 
4.000000e-02 1.194300e-02 -2.891400e-02 
4.000000e-02 1.194300e-02 -2.551200e-02 
4.000000e-02 1.194300e-02 -2.211000e-02 
4.000000e-02 1.194300e-02 -1.870900e-02 
4.000000e-02 1.194300e-02 -1.530700e-02 
4.000000e-02 1.194300e-02 -1.190600e-02 
4.000000e-02 1.194300e-02 -8.504000e-03 
4.000000e-02 1.194300e-02 -5.102400e-03 
4.000000e-02 1.194300e-02 -1.700800e-03 
4.000000e-02 1.194300e-02 1.700800e-03 
4.000000e-02 1.194300e-02 5.102400e-03 
4.000000e-02 1.194300e-02 8.504000e-03 
4.000000e-02 1.194300e-02 1.190600e-02 
4.000000e-02 1.194300e-02 1.530700e-02 
4.000000e-02 1.194300e-02 1.870900e-02 
4.000000e-02 1.194300e-02 2.211000e-02 
4.000000e-02 1.194300e-02 2.551200e-02 
4.000000e-02 1.194300e-02 2.891400e-02 
4.000000e-02 1.194300e-02 3.231500e-02 
4.000000e-02 1.194300e-02 3.571700e-02 
4.000000e-02 1.194300e-02 3.911800e-02 
4.000000e-02 1.194300e-02 4.252000e-02 
4.000000e-02 1.194300e-02 4.592200e-02 
4.000000e-02 1.194300e-02 4.932300e-02 
4.000000e-02 1.194300e-02 5.272500e-02 
4.000000e-02 1.194300e-02 5.612600e-02 
4.000000e-02 1.194300e-02 5.952800e-02 
4.000000e-02 1.194300e-02 6.293000e-02 
4.000000e-02 1.194300e-02 6.633100e-02 
3.982900e-02 1.194300e-02 6.973300e-02 
-3.954700e-02 1.535500e-02 -7.000000e-02 
-3.982900e-02 1.535500e-02 -6.973300e-02 
-4.000000e-02 1.535500e-02 -6.633100e-02 
-4.000000e-02 1.535500e-02 -6.293000e-02 
-4.000000e-02 1.535500e-02 -5.952800e-02 
-4.000000e-02 1.535500e-02 -5.612600e-02 
-4.000000e-02 1.535500e-02 -5.272500e-02 
-4.000000e-02 1.535500e-02 -4.932300e-02 
-4.000000e-02 1.535500e-02 -4.592200e-02 
-4.000000e-02 1.535500e-02 -4.252000e-02 
-4.000000e-02 1.535500e-02 -3.911800e-02 
-4.000000e-02 1.535500e-02 -3.571700e-02 
-4.000000e-02 1.535500e-02 -3.231500e-02 
-4.000000e-02 1.535500e-02 -2.891400e-02 
-4.000000e-02 1.535500e-02 -2.551200e-02 
-4.000000e-02 1.535500e-02 -2.211000e-02 
-4.000000e-02 1.535500e-02 -1.870900e-02 
-4.000000e-02 1.535500e-02 -1.530700e-02 
-4.000000e-02 1.535500e-02 -1.190600e-02 
-4.000000e-02 1.535500e-02 -8.504000e-03 
-4.000000e-02 1.535500e-02 -5.102400e-03 
-4.000000e-02 1.535500e-02 -1.700800e-03 
-4.000000e-02 1.535500e-02 1.700800e-03 
-4.000000e-02 1.535500e-02 5.102400e-03 
-4.000000e-02 1.535500e-02 8.504000e-03 
-4.000000e-02 1.535500e-02 1.190600e-02 
-4.000000e-02 1.535500e-02 1.530700e-02 
-4.000000e-02 1.535500e-02 1.870900e-02 
-4.000000e-02 1.535500e-02 2.211000e-02 
-4.000000e-02 1.535500e-02 2.551200e-02 
-4.000000e-02 1.535500e-02 2.891400e-02 
-4.000000e-02 1.535500e-02 3.231500e-02 
-4.000000e-02 1.535500e-02 3.571700e-02 
-4.000000e-02 1.535500e-02 3.911800e-02 
-4.000000e-02 1.535500e-02 4.252000e-02 
-4.000000e-02 1.535500e-02 4.592200e-02 
-4.000000e-02 1.535500e-02 4.932300e-02 
-4.000000e-02 1.535500e-02 5.272500e-02 
-4.000000e-02 1.535500e-02 5.612600e-02 
-4.000000e-02 1.535500e-02 5.952800e-02 
-4.000000e-02 1.535500e-02 6.293000e-02 
-4.000000e-02 1.535500e-02 6.633100e-02 
-3.982900e-02 1.535500e-02 6.973300e-02 
-3.954700e-02 1.535500e-02 7.000000e-02 
-3.610800e-02 1.535500e-02 -7.000000e-02 
-3.610800e-02 1.535500e-02 7.000000e-02 
-3.266900e-02 1.535500e-02 -7.000000e-02 
-3.266900e-02 1.535500e-02 7.000000e-02 
-2.923000e-02 1.535500e-02 -7.000000e-02 
-2.923000e-02 1.535500e-02 7.000000e-02 
-2.579100e-02 1.535500e-02 -7.000000e-02 
-2.579100e-02 1.535500e-02 7.000000e-02 
-2.235200e-02 1.535500e-02 -7.000000e-02 
-2.235200e-02 1.535500e-02 7.000000e-02 
-1.891400e-02 1.535500e-02 -7.000000e-02 
-1.891400e-02 1.535500e-02 7.000000e-02 
-1.547500e-02 1.535500e-02 -7.000000e-02 
-1.547500e-02 1.535500e-02 7.000000e-02 
-1.203600e-02 1.535500e-02 -7.000000e-02 
-1.203600e-02 1.535500e-02 7.000000e-02 
-8.597100e-03 1.535500e-02 -7.000000e-02 
-8.597100e-03 1.535500e-02 7.000000e-02 
-5.158200e-03 1.535500e-02 -7.000000e-02 
-5.158200e-03 1.535500e-02 7.000000e-02 
-1.719400e-03 1.535500e-02 -7.000000e-02 
-1.719400e-03 1.535500e-02 7.000000e-02 
1.719400e-03 1.535500e-02 -7.000000e-02 
1.719400e-03 1.535500e-02 7.000000e-02 
5.158200e-03 1.535500e-02 -7.000000e-02 
5.158200e-03 1.535500e-02 7.000000e-02 
8.597100e-03 1.535500e-02 -7.000000e-02 
8.597100e-03 1.535500e-02 7.000000e-02 
1.203600e-02 1.535500e-02 -7.000000e-02 
1.203600e-02 1.535500e-02 7.000000e-02 
1.547500e-02 1.535500e-02 -7.000000e-02 
1.547500e-02 1.535500e-02 7.000000e-02 
1.891400e-02 1.535500e-02 -7.000000e-02 
1.891400e-02 1.535500e-02 7.000000e-02 
2.235200e-02 1.535500e-02 -7.000000e-02 
2.235200e-02 1.535500e-02 7.000000e-02 
2.579100e-02 1.535500e-02 -7.000000e-02 
2.579100e-02 1.535500e-02 7.000000e-02 
2.923000e-02 1.535500e-02 -7.000000e-02 
2.923000e-02 1.535500e-02 7.000000e-02 
3.266900e-02 1.535500e-02 -7.000000e-02 
3.266900e-02 1.535500e-02 7.000000e-02 
3.610800e-02 1.535500e-02 -7.000000e-02 
3.610800e-02 1.535500e-02 7.000000e-02 
3.954700e-02 1.535500e-02 -7.000000e-02 
3.954700e-02 1.535500e-02 7.000000e-02 
3.982900e-02 1.535500e-02 -6.973300e-02 
4.000000e-02 1.535500e-02 -6.633100e-02 
4.000000e-02 1.535500e-02 -6.293000e-02 
4.000000e-02 1.535500e-02 -5.952800e-02 
4.000000e-02 1.535500e-02 -5.612600e-02 
4.000000e-02 1.535500e-02 -5.272500e-02 
4.000000e-02 1.535500e-02 -4.932300e-02 
4.000000e-02 1.535500e-02 -4.592200e-02 
4.000000e-02 1.535500e-02 -4.252000e-02 
4.000000e-02 1.535500e-02 -3.911800e-02 
4.000000e-02 1.535500e-02 -3.571700e-02 
4.000000e-02 1.535500e-02 -3.231500e-02 
4.000000e-02 1.535500e-02 -2.891400e-02 
4.000000e-02 1.535500e-02 -2.551200e-02 
4.000000e-02 1.535500e-02 -2.211000e-02 
4.000000e-02 1.535500e-02 -1.870900e-02 
4.000000e-02 1.535500e-02 -1.530700e-02 
4.000000e-02 1.535500e-02 -1.190600e-02 
4.000000e-02 1.535500e-02 -8.504000e-03 
4.000000e-02 1.535500e-02 -5.102400e-03 
4.000000e-02 1.535500e-02 -1.700800e-03 
4.000000e-02 1.535500e-02 1.700800e-03 
4.000000e-02 1.535500e-02 5.102400e-03 
4.000000e-02 1.535500e-02 8.504000e-03 
4.000000e-02 1.535500e-02 1.190600e-02 
4.000000e-02 1.535500e-02 1.530700e-02 
4.000000e-02 1.535500e-02 1.870900e-02 
4.000000e-02 1.535500e-02 2.211000e-02 
4.000000e-02 1.535500e-02 2.551200e-02 
4.000000e-02 1.535500e-02 2.891400e-02 
4.000000e-02 1.535500e-02 3.231500e-02 
4.000000e-02 1.535500e-02 3.571700e-02 
4.000000e-02 1.535500e-02 3.911800e-02 
4.000000e-02 1.535500e-02 4.252000e-02 
4.000000e-02 1.535500e-02 4.592200e-02 
4.000000e-02 1.535500e-02 4.932300e-02 
4.000000e-02 1.535500e-02 5.272500e-02 
4.000000e-02 1.535500e-02 5.612600e-02 
4.000000e-02 1.535500e-02 5.952800e-02 
4.000000e-02 1.535500e-02 6.293000e-02 
4.000000e-02 1.535500e-02 6.633100e-02 
3.982900e-02 1.535500e-02 6.973300e-02 
-3.954700e-02 1.876700e-02 -7.000000e-02 
-3.982900e-02 1.876700e-02 -6.973300e-02 
-4.000000e-02 1.876700e-02 -6.633100e-02 
-4.000000e-02 1.876700e-02 -6.293000e-02 
-4.000000e-02 1.876700e-02 -5.952800e-02 
-4.000000e-02 1.876700e-02 -5.612600e-02 
-4.000000e-02 1.876700e-02 -5.272500e-02 
-4.000000e-02 1.876700e-02 -4.932300e-02 
-4.000000e-02 1.876700e-02 -4.592200e-02 
-4.000000e-02 1.876700e-02 -4.252000e-02 
-4.000000e-02 1.876700e-02 -3.911800e-02 
-4.000000e-02 1.876700e-02 -3.571700e-02 
-4.000000e-02 1.876700e-02 -3.231500e-02 
-4.000000e-02 1.876700e-02 -2.891400e-02 
-4.000000e-02 1.876700e-02 -2.551200e-02 
-4.000000e-02 1.876700e-02 -2.211000e-02 
-4.000000e-02 1.876700e-02 -1.870900e-02 
-4.000000e-02 1.876700e-02 -1.530700e-02 
-4.000000e-02 1.876700e-02 -1.190600e-02 
-4.000000e-02 1.876700e-02 -8.504000e-03 
-4.000000e-02 1.876700e-02 -5.102400e-03 
-4.000000e-02 1.876700e-02 -1.700800e-03 
-4.000000e-02 1.876700e-02 1.700800e-03 
-4.000000e-02 1.876700e-02 5.102400e-03 
-4.000000e-02 1.876700e-02 8.504000e-03 
-4.000000e-02 1.876700e-02 1.190600e-02 
-4.000000e-02 1.876700e-02 1.530700e-02 
-4.000000e-02 1.876700e-02 1.870900e-02 
-4.000000e-02 1.876700e-02 2.211000e-02 
-4.000000e-02 1.876700e-02 2.551200e-02 
-4.000000e-02 1.876700e-02 2.891400e-02 
-4.000000e-02 1.876700e-02 3.231500e-02 
-4.000000e-02 1.876700e-02 3.571700e-02 
-4.000000e-02 1.876700e-02 3.911800e-02 
-4.000000e-02 1.876700e-02 4.252000e-02 
-4.000000e-02 1.876700e-02 4.592200e-02 
-4.000000e-02 1.876700e-02 4.932300e-02 
-4.000000e-02 1.876700e-02 5.272500e-02 
-4.000000e-02 1.876700e-02 5.612600e-02 
-4.000000e-02 1.876700e-02 5.952800e-02 
-4.000000e-02 1.876700e-02 6.293000e-02 
-4.000000e-02 1.876700e-02 6.633100e-02 
-3.982900e-02 1.876700e-02 6.973300e-02 
-3.954700e-02 1.876700e-02 7.000000e-02 
-3.610800e-02 1.876700e-02 -7.000000e-02 
-3.610800e-02 1.876700e-02 7.000000e-02 
-3.266900e-02 1.876700e-02 -7.000000e-02 
-3.266900e-02 1.876700e-02 7.000000e-02 
-2.923000e-02 1.876700e-02 -7.000000e-02 
-2.923000e-02 1.876700e-02 7.000000e-02 
-2.579100e-02 1.876700e-02 -7.000000e-02 
-2.579100e-02 1.876700e-02 7.000000e-02 
-2.235200e-02 1.876700e-02 -7.000000e-02 
-2.235200e-02 1.876700e-02 7.000000e-02 
-1.891400e-02 1.876700e-02 -7.000000e-02 
-1.891400e-02 1.876700e-02 7.000000e-02 
-1.547500e-02 1.876700e-02 -7.000000e-02 
-1.547500e-02 1.876700e-02 7.000000e-02 
-1.203600e-02 1.876700e-02 -7.000000e-02 
-1.203600e-02 1.876700e-02 7.000000e-02 
-8.597100e-03 1.876700e-02 -7.000000e-02 
-8.597100e-03 1.876700e-02 7.000000e-02 
-5.158200e-03 1.876700e-02 -7.000000e-02 
-5.158200e-03 1.876700e-02 7.000000e-02 
-1.719400e-03 1.876700e-02 -7.000000e-02 
-1.719400e-03 1.876700e-02 7.000000e-02 
1.719400e-03 1.876700e-02 -7.000000e-02 
1.719400e-03 1.876700e-02 7.000000e-02 
5.158200e-03 1.876700e-02 -7.000000e-02 
5.158200e-03 1.876700e-02 7.000000e-02 
8.597100e-03 1.876700e-02 -7.000000e-02 
8.597100e-03 1.876700e-02 7.000000e-02 
1.203600e-02 1.876700e-02 -7.000000e-02 
1.203600e-02 1.876700e-02 7.000000e-02 
1.547500e-02 1.876700e-02 -7.000000e-02 
1.547500e-02 1.876700e-02 7.000000e-02 
1.891400e-02 1.876700e-02 -7.000000e-02 
1.891400e-02 1.876700e-02 7.000000e-02 
2.235200e-02 1.876700e-02 -7.000000e-02 
2.235200e-02 1.876700e-02 7.000000e-02 
2.579100e-02 1.876700e-02 -7.000000e-02 
2.579100e-02 1.876700e-02 7.000000e-02 
2.923000e-02 1.876700e-02 -7.000000e-02 
2.923000e-02 1.876700e-02 7.000000e-02 
3.266900e-02 1.876700e-02 -7.000000e-02 
3.266900e-02 1.876700e-02 7.000000e-02 
3.610800e-02 1.876700e-02 -7.000000e-02 
3.610800e-02 1.876700e-02 7.000000e-02 
3.954700e-02 1.876700e-02 -7.000000e-02 
3.954700e-02 1.876700e-02 7.000000e-02 
3.982900e-02 1.876700e-02 -6.973300e-02 
4.000000e-02 1.876700e-02 -6.633100e-02 
4.000000e-02 1.876700e-02 -6.293000e-02 
4.000000e-02 1.876700e-02 -5.952800e-02 
4.000000e-02 1.876700e-02 -5.612600e-02 
4.000000e-02 1.876700e-02 -5.272500e-02 
4.000000e-02 1.876700e-02 -4.932300e-02 
4.000000e-02 1.876700e-02 -4.592200e-02 
4.000000e-02 1.876700e-02 -4.252000e-02 
4.000000e-02 1.876700e-02 -3.911800e-02 
4.000000e-02 1.876700e-02 -3.571700e-02 
4.000000e-02 1.876700e-02 -3.231500e-02 
4.000000e-02 1.876700e-02 -2.891400e-02 
4.000000e-02 1.876700e-02 -2.551200e-02 
4.000000e-02 1.876700e-02 -2.211000e-02 
4.000000e-02 1.876700e-02 -1.870900e-02 
4.000000e-02 1.876700e-02 -1.530700e-02 
4.000000e-02 1.876700e-02 -1.190600e-02 
4.000000e-02 1.876700e-02 -8.504000e-03 
4.000000e-02 1.876700e-02 -5.102400e-03 
4.000000e-02 1.876700e-02 -1.700800e-03 
4.000000e-02 1.876700e-02 1.700800e-03 
4.000000e-02 1.876700e-02 5.102400e-03 
4.000000e-02 1.876700e-02 8.504000e-03 
4.000000e-02 1.876700e-02 1.190600e-02 
4.000000e-02 1.876700e-02 1.530700e-02 
4.000000e-02 1.876700e-02 1.870900e-02 
4.000000e-02 1.876700e-02 2.211000e-02 
4.000000e-02 1.876700e-02 2.551200e-02 
4.000000e-02 1.876700e-02 2.891400e-02 
4.000000e-02 1.876700e-02 3.231500e-02 
4.000000e-02 1.876700e-02 3.571700e-02 
4.000000e-02 1.876700e-02 3.911800e-02 
4.000000e-02 1.876700e-02 4.252000e-02 
4.000000e-02 1.876700e-02 4.592200e-02 
4.000000e-02 1.876700e-02 4.932300e-02 
4.000000e-02 1.876700e-02 5.272500e-02 
4.000000e-02 1.876700e-02 5.612600e-02 
4.000000e-02 1.876700e-02 5.952800e-02 
4.000000e-02 1.876700e-02 6.293000e-02 
4.000000e-02 1.876700e-02 6.633100e-02 
3.982900e-02 1.876700e-02 6.973300e-02 
-3.954700e-02 2.218000e-02 -7.000000e-02 
-3.982900e-02 2.218000e-02 -6.973300e-02 
-3.988000e-02 2.218000e-02 -6.633100e-02 
-3.988000e-02 2.218000e-02 -6.293000e-02 
-3.988000e-02 2.218000e-02 -5.952800e-02 
-3.988000e-02 2.218000e-02 -5.612600e-02 
-3.988000e-02 2.218000e-02 -5.272500e-02 
-3.988000e-02 2.218000e-02 -4.932300e-02 
-3.988000e-02 2.218000e-02 -4.592200e-02 
-3.988000e-02 2.218000e-02 -4.252000e-02 
-3.988000e-02 2.218000e-02 -3.911800e-02 
-3.988000e-02 2.218000e-02 -3.571700e-02 
-3.988000e-02 2.218000e-02 -3.231500e-02 
-3.988000e-02 2.218000e-02 -2.891400e-02 
-3.988000e-02 2.218000e-02 -2.551200e-02 
-3.988000e-02 2.218000e-02 -2.211000e-02 
-3.988000e-02 2.218000e-02 -1.870900e-02 
-3.988000e-02 2.218000e-02 -1.530700e-02 
-3.988000e-02 2.218000e-02 -1.190600e-02 
-3.988000e-02 2.218000e-02 -8.504000e-03 
-3.988000e-02 2.218000e-02 -5.102400e-03 
-3.988000e-02 2.218000e-02 -1.700800e-03 
-3.988000e-02 2.218000e-02 1.700800e-03 
-3.988000e-02 2.218000e-02 5.102400e-03 
-3.988000e-02 2.218000e-02 8.504000e-03 
-3.988000e-02 2.218000e-02 1.190600e-02 
-3.988000e-02 2.218000e-02 1.530700e-02 
-3.988000e-02 2.218000e-02 1.870900e-02 
-3.988000e-02 2.218000e-02 2.211000e-02 
-3.988000e-02 2.218000e-02 2.551200e-02 
-3.988000e-02 2.218000e-02 2.891400e-02 
-3.988000e-02 2.218000e-02 3.231500e-02 
-3.988000e-02 2.218000e-02 3.571700e-02 
-3.988000e-02 2.218000e-02 3.911800e-02 
-3.988000e-02 2.218000e-02 4.252000e-02 
-3.988000e-02 2.218000e-02 4.592200e-02 
-3.988000e-02 2.218000e-02 4.932300e-02 
-3.988000e-02 2.218000e-02 5.272500e-02 
-3.988000e-02 2.218000e-02 5.612600e-02 
-3.988000e-02 2.218000e-02 5.952800e-02 
-3.988000e-02 2.218000e-02 6.293000e-02 
-3.988000e-02 2.218000e-02 6.633100e-02 
-3.982900e-02 2.218000e-02 6.973300e-02 
-3.954700e-02 2.218000e-02 7.000000e-02 
-3.610800e-02 2.218000e-02 -7.000000e-02 
-3.610800e-02 2.218000e-02 7.000000e-02 
-3.266900e-02 2.218000e-02 -7.000000e-02 
-3.266900e-02 2.218000e-02 7.000000e-02 
-2.923000e-02 2.218000e-02 -7.000000e-02 
-2.923000e-02 2.218000e-02 7.000000e-02 
-2.579100e-02 2.218000e-02 -7.000000e-02 
-2.579100e-02 2.218000e-02 7.000000e-02 
-2.235200e-02 2.218000e-02 -7.000000e-02 
-2.235200e-02 2.218000e-02 7.000000e-02 
-1.891400e-02 2.218000e-02 -7.000000e-02 
-1.891400e-02 2.218000e-02 7.000000e-02 
-1.547500e-02 2.218000e-02 -7.000000e-02 
-1.547500e-02 2.218000e-02 7.000000e-02 
-1.203600e-02 2.218000e-02 -7.000000e-02 
-1.203600e-02 2.218000e-02 7.000000e-02 
-8.597100e-03 2.218000e-02 -7.000000e-02 
-8.597100e-03 2.218000e-02 7.000000e-02 
-5.158200e-03 2.218000e-02 -7.000000e-02 
-5.158200e-03 2.218000e-02 7.000000e-02 
-1.719400e-03 2.218000e-02 -7.000000e-02 
-1.719400e-03 2.218000e-02 7.000000e-02 
1.719400e-03 2.218000e-02 -7.000000e-02 
1.719400e-03 2.218000e-02 7.000000e-02 
5.158200e-03 2.218000e-02 -7.000000e-02 
5.158200e-03 2.218000e-02 7.000000e-02 
8.597100e-03 2.218000e-02 -7.000000e-02 
8.597100e-03 2.218000e-02 7.000000e-02 
1.203600e-02 2.218000e-02 -7.000000e-02 
1.203600e-02 2.218000e-02 7.000000e-02 
1.547500e-02 2.218000e-02 -7.000000e-02 
1.547500e-02 2.218000e-02 7.000000e-02 
1.891400e-02 2.218000e-02 -7.000000e-02 
1.891400e-02 2.218000e-02 7.000000e-02 
2.235200e-02 2.218000e-02 -7.000000e-02 
2.235200e-02 2.218000e-02 7.000000e-02 
2.579100e-02 2.218000e-02 -7.000000e-02 
2.579100e-02 2.218000e-02 7.000000e-02 
2.923000e-02 2.218000e-02 -7.000000e-02 
2.923000e-02 2.218000e-02 7.000000e-02 
3.266900e-02 2.218000e-02 -7.000000e-02 
3.266900e-02 2.218000e-02 7.000000e-02 
3.610800e-02 2.218000e-02 -7.000000e-02 
3.610800e-02 2.218000e-02 7.000000e-02 
3.954700e-02 2.218000e-02 -7.000000e-02 
3.954700e-02 2.218000e-02 7.000000e-02 
3.982900e-02 2.218000e-02 -6.973300e-02 
3.988000e-02 2.218000e-02 -6.633100e-02 
3.988000e-02 2.218000e-02 -6.293000e-02 
3.988000e-02 2.218000e-02 -5.952800e-02 
3.988000e-02 2.218000e-02 -5.612600e-02 
3.988000e-02 2.218000e-02 -5.272500e-02 
3.988000e-02 2.218000e-02 -4.932300e-02 
3.988000e-02 2.218000e-02 -4.592200e-02 
3.988000e-02 2.218000e-02 -4.252000e-02 
3.988000e-02 2.218000e-02 -3.911800e-02 
3.988000e-02 2.218000e-02 -3.571700e-02 
3.988000e-02 2.218000e-02 -3.231500e-02 
3.988000e-02 2.218000e-02 -2.891400e-02 
3.988000e-02 2.218000e-02 -2.551200e-02 
3.988000e-02 2.218000e-02 -2.211000e-02 
3.988000e-02 2.218000e-02 -1.870900e-02 
3.988000e-02 2.218000e-02 -1.530700e-02 
3.988000e-02 2.218000e-02 -1.190600e-02 
3.988000e-02 2.218000e-02 -8.504000e-03 
3.988000e-02 2.218000e-02 -5.102400e-03 
3.988000e-02 2.218000e-02 -1.700800e-03 
3.988000e-02 2.218000e-02 1.700800e-03 
3.988000e-02 2.218000e-02 5.102400e-03 
3.988000e-02 2.218000e-02 8.504000e-03 
3.988000e-02 2.218000e-02 1.190600e-02 
3.988000e-02 2.218000e-02 1.530700e-02 
3.988000e-02 2.218000e-02 1.870900e-02 
3.988000e-02 2.218000e-02 2.211000e-02 
3.988000e-02 2.218000e-02 2.551200e-02 
3.988000e-02 2.218000e-02 2.891400e-02 
3.988000e-02 2.218000e-02 3.231500e-02 
3.988000e-02 2.218000e-02 3.571700e-02 
3.988000e-02 2.218000e-02 3.911800e-02 
3.988000e-02 2.218000e-02 4.252000e-02 
3.988000e-02 2.218000e-02 4.592200e-02 
3.988000e-02 2.218000e-02 4.932300e-02 
3.988000e-02 2.218000e-02 5.272500e-02 
3.988000e-02 2.218000e-02 5.612600e-02 
3.988000e-02 2.218000e-02 5.952800e-02 
3.988000e-02 2.218000e-02 6.293000e-02 
3.988000e-02 2.218000e-02 6.633100e-02 
3.982900e-02 2.218000e-02 6.973300e-02 
-3.954700e-02 2.245100e-02 -6.973300e-02 
-3.954700e-02 2.250000e-02 -6.633100e-02 
-3.954700e-02 2.250000e-02 -6.293000e-02 
-3.954700e-02 2.250000e-02 -5.952800e-02 
-3.954700e-02 2.250000e-02 -5.612600e-02 
-3.954700e-02 2.250000e-02 -5.272500e-02 
-3.954700e-02 2.250000e-02 -4.932300e-02 
-3.954700e-02 2.250000e-02 -4.592200e-02 
-3.954700e-02 2.250000e-02 -4.252000e-02 
-3.954700e-02 2.250000e-02 -3.911800e-02 
-3.954700e-02 2.250000e-02 -3.571700e-02 
-3.954700e-02 2.250000e-02 -3.231500e-02 
-3.954700e-02 2.250000e-02 -2.891400e-02 
-3.954700e-02 2.250000e-02 -2.551200e-02 
-3.954700e-02 2.250000e-02 -2.211000e-02 
-3.954700e-02 2.250000e-02 -1.870900e-02 
-3.954700e-02 2.250000e-02 -1.530700e-02 
-3.954700e-02 2.250000e-02 -1.190600e-02 
-3.954700e-02 2.250000e-02 -8.504000e-03 
-3.954700e-02 2.250000e-02 -5.102400e-03 
-3.954700e-02 2.250000e-02 -1.700800e-03 
-3.954700e-02 2.250000e-02 1.700800e-03 
-3.954700e-02 2.250000e-02 5.102400e-03 
-3.954700e-02 2.250000e-02 8.504000e-03 
-3.954700e-02 2.250000e-02 1.190600e-02 
-3.954700e-02 2.250000e-02 1.530700e-02 
-3.954700e-02 2.250000e-02 1.870900e-02 
-3.954700e-02 2.250000e-02 2.211000e-02 
-3.954700e-02 2.250000e-02 2.551200e-02 
-3.954700e-02 2.250000e-02 2.891400e-02 
-3.954700e-02 2.250000e-02 3.231500e-02 
-3.954700e-02 2.250000e-02 3.571700e-02 
-3.954700e-02 2.250000e-02 3.911800e-02 
-3.954700e-02 2.250000e-02 4.252000e-02 
-3.954700e-02 2.250000e-02 4.592200e-02 
-3.954700e-02 2.250000e-02 4.932300e-02 
-3.954700e-02 2.250000e-02 5.272500e-02 
-3.954700e-02 2.250000e-02 5.612600e-02 
-3.954700e-02 2.250000e-02 5.952800e-02 
-3.954700e-02 2.250000e-02 6.293000e-02 
-3.954700e-02 2.250000e-02 6.633100e-02 
-3.954700e-02 2.245100e-02 6.973300e-02 
-3.610800e-02 2.245100e-02 -6.973300e-02 
-3.610800e-02 2.250000e-02 -6.633100e-02 
-3.610800e-02 2.250000e-02 -6.293000e-02 
-3.610800e-02 2.250000e-02 -5.952800e-02 
-3.610800e-02 2.250000e-02 -5.612600e-02 
-3.610800e-02 2.250000e-02 -5.272500e-02 
-3.610800e-02 2.250000e-02 -4.932300e-02 
-3.610800e-02 2.250000e-02 -4.592200e-02 
-3.610800e-02 2.250000e-02 -4.252000e-02 
-3.610800e-02 2.250000e-02 -3.911800e-02 
-3.610800e-02 2.250000e-02 -3.571700e-02 
-3.610800e-02 2.250000e-02 -3.231500e-02 
-3.610800e-02 2.250000e-02 -2.891400e-02 
-3.610800e-02 2.250000e-02 -2.551200e-02 
-3.610800e-02 2.250000e-02 -2.211000e-02 
-3.610800e-02 2.250000e-02 -1.870900e-02 
-3.610800e-02 2.250000e-02 -1.530700e-02 
-3.610800e-02 2.250000e-02 -1.190600e-02 
-3.610800e-02 2.250000e-02 -8.504000e-03 
-3.610800e-02 2.250000e-02 -5.102400e-03 
-3.610800e-02 2.250000e-02 -1.700800e-03 
-3.610800e-02 2.250000e-02 1.700800e-03 
-3.610800e-02 2.250000e-02 5.102400e-03 
-3.610800e-02 2.250000e-02 8.504000e-03 
-3.610800e-02 2.250000e-02 1.190600e-02 
-3.610800e-02 2.250000e-02 1.530700e-02 
-3.610800e-02 2.250000e-02 1.870900e-02 
-3.610800e-02 2.250000e-02 2.211000e-02 
-3.610800e-02 2.250000e-02 2.551200e-02 
-3.610800e-02 2.250000e-02 2.891400e-02 
-3.610800e-02 2.250000e-02 3.231500e-02 
-3.610800e-02 2.250000e-02 3.571700e-02 
-3.610800e-02 2.250000e-02 3.911800e-02 
-3.610800e-02 2.250000e-02 4.252000e-02 
-3.610800e-02 2.250000e-02 4.592200e-02 
-3.610800e-02 2.250000e-02 4.932300e-02 
-3.610800e-02 2.250000e-02 5.272500e-02 
-3.610800e-02 2.250000e-02 5.612600e-02 
-3.610800e-02 2.250000e-02 5.952800e-02 
-3.610800e-02 2.250000e-02 6.293000e-02 
-3.610800e-02 2.250000e-02 6.633100e-02 
-3.610800e-02 2.245100e-02 6.973300e-02 
-3.266900e-02 2.245100e-02 -6.973300e-02 
-3.266900e-02 2.250000e-02 -6.633100e-02 
-3.266900e-02 2.250000e-02 -6.293000e-02 
-3.266900e-02 2.250000e-02 -5.952800e-02 
-3.266900e-02 2.250000e-02 -5.612600e-02 
-3.266900e-02 2.250000e-02 -5.272500e-02 
-3.266900e-02 2.250000e-02 -4.932300e-02 
-3.266900e-02 2.250000e-02 -4.592200e-02 
-3.266900e-02 2.250000e-02 -4.252000e-02 
-3.266900e-02 2.250000e-02 -3.911800e-02 
-3.266900e-02 2.250000e-02 -3.571700e-02 
-3.266900e-02 2.250000e-02 -3.231500e-02 
-3.266900e-02 2.250000e-02 -2.891400e-02 
-3.266900e-02 2.250000e-02 -2.551200e-02 
-3.266900e-02 2.250000e-02 -2.211000e-02 
-3.266900e-02 2.250000e-02 -1.870900e-02 
-3.266900e-02 2.250000e-02 -1.530700e-02 
-3.266900e-02 2.250000e-02 -1.190600e-02 
-3.266900e-02 2.250000e-02 -8.504000e-03 
-3.266900e-02 2.250000e-02 -5.102400e-03 
-3.266900e-02 2.250000e-02 -1.700800e-03 
-3.266900e-02 2.250000e-02 1.700800e-03 
-3.266900e-02 2.250000e-02 5.102400e-03 
-3.266900e-02 2.250000e-02 8.504000e-03 
-3.266900e-02 2.250000e-02 1.190600e-02 
-3.266900e-02 2.250000e-02 1.530700e-02 
-3.266900e-02 2.250000e-02 1.870900e-02 
-3.266900e-02 2.250000e-02 2.211000e-02 
-3.266900e-02 2.250000e-02 2.551200e-02 
-3.266900e-02 2.250000e-02 2.891400e-02 
-3.266900e-02 2.250000e-02 3.231500e-02 
-3.266900e-02 2.250000e-02 3.571700e-02 
-3.266900e-02 2.250000e-02 3.911800e-02 
-3.266900e-02 2.250000e-02 4.252000e-02 
-3.266900e-02 2.250000e-02 4.592200e-02 
-3.266900e-02 2.250000e-02 4.932300e-02 
-3.266900e-02 2.250000e-02 5.272500e-02 
-3.266900e-02 2.250000e-02 5.612600e-02 
-3.266900e-02 2.250000e-02 5.952800e-02 
-3.266900e-02 2.250000e-02 6.293000e-02 
-3.266900e-02 2.250000e-02 6.633100e-02 
-3.266900e-02 2.245100e-02 6.973300e-02 
-2.923000e-02 2.245100e-02 -6.973300e-02 
-2.923000e-02 2.250000e-02 -6.633100e-02 
-2.923000e-02 2.250000e-02 -6.293000e-02 
-2.923000e-02 2.250000e-02 -5.952800e-02 
-2.923000e-02 2.250000e-02 -5.612600e-02 
-2.923000e-02 2.250000e-02 -5.272500e-02 
-2.923000e-02 2.250000e-02 -4.932300e-02 
-2.923000e-02 2.250000e-02 -4.592200e-02 
-2.923000e-02 2.250000e-02 -4.252000e-02 
-2.923000e-02 2.250000e-02 -3.911800e-02 
-2.923000e-02 2.250000e-02 -3.571700e-02 
-2.923000e-02 2.250000e-02 -3.231500e-02 
-2.923000e-02 2.250000e-02 -2.891400e-02 
-2.923000e-02 2.250000e-02 -2.551200e-02 
-2.923000e-02 2.250000e-02 -2.211000e-02 
-2.923000e-02 2.250000e-02 -1.870900e-02 
-2.923000e-02 2.250000e-02 -1.530700e-02 
-2.923000e-02 2.250000e-02 -1.190600e-02 
-2.923000e-02 2.250000e-02 -8.504000e-03 
-2.923000e-02 2.250000e-02 -5.102400e-03 
-2.923000e-02 2.250000e-02 -1.700800e-03 
-2.923000e-02 2.250000e-02 1.700800e-03 
-2.923000e-02 2.250000e-02 5.102400e-03 
-2.923000e-02 2.250000e-02 8.504000e-03 
-2.923000e-02 2.250000e-02 1.190600e-02 
-2.923000e-02 2.250000e-02 1.530700e-02 
-2.923000e-02 2.250000e-02 1.870900e-02 
-2.923000e-02 2.250000e-02 2.211000e-02 
-2.923000e-02 2.250000e-02 2.551200e-02 
-2.923000e-02 2.250000e-02 2.891400e-02 
-2.923000e-02 2.250000e-02 3.231500e-02 
-2.923000e-02 2.250000e-02 3.571700e-02 
-2.923000e-02 2.250000e-02 3.911800e-02 
-2.923000e-02 2.250000e-02 4.252000e-02 
-2.923000e-02 2.250000e-02 4.592200e-02 
-2.923000e-02 2.250000e-02 4.932300e-02 
-2.923000e-02 2.250000e-02 5.272500e-02 
-2.923000e-02 2.250000e-02 5.612600e-02 
-2.923000e-02 2.250000e-02 5.952800e-02 
-2.923000e-02 2.250000e-02 6.293000e-02 
-2.923000e-02 2.250000e-02 6.633100e-02 
-2.923000e-02 2.245100e-02 6.973300e-02 
-2.579100e-02 2.245100e-02 -6.973300e-02 
-2.579100e-02 2.250000e-02 -6.633100e-02 
-2.579100e-02 2.250000e-02 -6.293000e-02 
-2.579100e-02 2.250000e-02 -5.952800e-02 
-2.579100e-02 2.250000e-02 -5.612600e-02 
-2.579100e-02 2.250000e-02 -5.272500e-02 
-2.579100e-02 2.250000e-02 -4.932300e-02 
-2.579100e-02 2.250000e-02 -4.592200e-02 
-2.579100e-02 2.250000e-02 -4.252000e-02 
-2.579100e-02 2.250000e-02 -3.911800e-02 
-2.579100e-02 2.250000e-02 -3.571700e-02 
-2.579100e-02 2.250000e-02 -3.231500e-02 
-2.579100e-02 2.250000e-02 -2.891400e-02 
-2.579100e-02 2.250000e-02 -2.551200e-02 
-2.579100e-02 2.250000e-02 -2.211000e-02 
-2.579100e-02 2.250000e-02 -1.870900e-02 
-2.579100e-02 2.250000e-02 -1.530700e-02 
-2.579100e-02 2.250000e-02 -1.190600e-02 
-2.579100e-02 2.250000e-02 -8.504000e-03 
-2.579100e-02 2.250000e-02 -5.102400e-03 
-2.579100e-02 2.250000e-02 -1.700800e-03 
-2.579100e-02 2.250000e-02 1.700800e-03 
-2.579100e-02 2.250000e-02 5.102400e-03 
-2.579100e-02 2.250000e-02 8.504000e-03 
-2.579100e-02 2.250000e-02 1.190600e-02 
-2.579100e-02 2.250000e-02 1.530700e-02 
-2.579100e-02 2.250000e-02 1.870900e-02 
-2.579100e-02 2.250000e-02 2.211000e-02 
-2.579100e-02 2.250000e-02 2.551200e-02 
-2.579100e-02 2.250000e-02 2.891400e-02 
-2.579100e-02 2.250000e-02 3.231500e-02 
