# .PCD v.6 - Point Cloud Data file format
FIELDS x y z 
SIZE 4 4 4 
TYPE F F F 
COUNT 1 1 1 
WIDTH 1168
HEIGHT 1
POINTS 1168
DATA ascii
3.908015e-03 -4.826641e-02 2.177090e-02 
4.594998e-02 -2.894321e-02 5.211320e-02 
4.822356e-02 4.388938e-03 4.530160e-02 
7.103614e-03 -4.828839e-02 2.301580e-02 
4.646681e-02 -2.794483e-02 5.089650e-02 
4.728246e-02 6.151573e-03 4.263980e-02 
1.271032e-02 -4.810687e-02 2.625500e-02 
4.740464e-02 -2.372323e-02 4.918640e-02 
3.810419e-02 1.678062e-02 3.067230e-02 
3.195580e-02 -4.430261e-02 4.011730e-02 
4.798066e-02 -1.703420e-02 4.651560e-02 
2.943954e-02 2.856147e-02 1.878790e-02 
3.538599e-02 -4.109103e-02 4.076640e-02 
4.843954e-02 -1.254967e-02 4.431910e-02 
2.515749e-02 3.582008e-02 1.177210e-02 
3.861062e-02 -3.667153e-02 4.092710e-02 
4.871764e-02 -6.803137e-03 4.162860e-02 
2.316401e-03 -5.552600e-02 1.354710e-02 
4.201349e-02 -3.348852e-02 4.157190e-02 
4.918049e-02 -2.272886e-03 3.941000e-02 
6.704380e-03 -5.363327e-02 1.532150e-02 
4.686205e-02 -3.096482e-02 4.363410e-02 
4.768622e-02 3.245053e-03 3.524930e-02 
1.328067e-02 -5.029052e-02 1.859630e-02 
4.828996e-02 -2.694694e-02 4.237980e-02 
4.319339e-02 1.031544e-02 2.809120e-02 
1.863124e-02 -4.885292e-02 2.134460e-02 
4.814332e-02 -2.449592e-02 4.018940e-02 
4.001479e-02 1.442688e-02 2.282330e-02 
2.340910e-02 -4.722223e-02 2.356390e-02 
4.817933e-02 -2.326516e-02 3.847630e-02 
3.851837e-02 1.651982e-02 1.952350e-02 
2.712048e-02 -4.518829e-02 2.476840e-02 
4.784802e-02 -1.956137e-02 3.577950e-02 
3.558840e-02 2.176259e-02 1.413220e-02 
3.233107e-02 -4.379551e-02 2.744980e-02 
4.751468e-02 -1.583567e-02 3.306670e-02 
3.675064e-02 2.493680e-02 1.281370e-02 
4.699380e-02 -1.083762e-02 2.984070e-02 
1.174647e-02 -5.752774e-02 1.039320e-02 
3.865910e-02 -3.362593e-02 2.731300e-02 
4.837898e-02 -3.213097e-03 2.755040e-02 
1.891453e-02 -5.208020e-02 1.367800e-02 
4.301792e-02 -2.735831e-02 2.796940e-02 
4.680129e-02 5.921911e-03 2.226780e-02 
3.032236e-02 -4.382525e-02 1.991760e-02 
4.562546e-02 -1.567805e-02 2.563940e-02 
3.987476e-02 2.271942e-02 1.022650e-02 
4.092113e-02 -3.202978e-02 2.452040e-02 
4.916943e-02 -8.735358e-04 2.327340e-02 
3.238608e-02 -4.221056e-02 1.836620e-02 
4.618714e-02 -1.338373e-02 2.261360e-02 
2.454155e-02 -5.172767e-02 1.261310e-02 
4.500278e-02 -2.553837e-02 2.343490e-02 
4.681831e-02 8.831372e-03 1.566160e-02 
4.064763e-02 -3.511648e-02 2.076990e-02 
4.940838e-02 -4.134335e-03 2.001470e-02 
3.404269e-02 -4.266987e-02 1.555890e-02 
4.734775e-02 -1.358659e-02 1.932830e-02 
3.054629e-02 -4.928890e-02 1.281820e-02 
4.739109e-02 -2.166587e-02 2.012420e-02 
4.823767e-02 1.330818e-02 1.127980e-02 
4.625919e-02 -2.802729e-02 1.941380e-02 
4.958659e-02 5.620250e-03 1.311200e-02 
4.555548e-02 -3.110042e-02 1.817780e-02 
5.086557e-02 1.563890e-03 1.389300e-02 
4.546782e-02 -3.212865e-02 1.692290e-02 
5.127659e-02 3.102749e-04 1.313500e-02 
4.711045e-02 -2.927656e-02 1.613470e-02 
5.144371e-02 3.916021e-03 1.081560e-02 
5.054393e-02 -1.674247e-02 1.426230e-02 
4.792803e-02 -3.177064e-02 1.462660e-02 
4.349767e-02 -3.788367e-02 1.088600e-02 
5.279364e-02 -7.002294e-03 1.062910e-02 
5.357002e-02 -1.078376e-02 1.090590e-02 
4.807922e-02 -3.611345e-02 1.008970e-02 
-5.365380e-02 2.071455e-03 1.222864e-01 
-5.024653e-02 5.193423e-03 1.195434e-01 
-5.135579e-02 1.018335e-03 1.176270e-01 
-4.282723e-02 9.499222e-03 1.188993e-01 
-4.983429e-02 -9.675523e-04 1.153478e-01 
-4.269048e-02 2.098682e-03 1.175214e-01 
-3.760680e-02 5.180080e-03 1.184159e-01 
-3.400609e-02 6.684892e-03 1.189009e-01 
-3.091835e-02 8.515612e-03 1.189635e-01 
-2.978246e-02 9.120634e-03 1.182015e-01 
-3.152477e-02 5.334262e-03 1.170595e-01 
-3.372288e-02 -6.757668e-04 1.163559e-01 
-2.396160e-02 1.309626e-02 1.167348e-01 
-3.190353e-02 -1.680576e-03 1.152714e-01 
-1.470818e-02 2.458244e-02 1.175488e-01 
-2.793042e-02 5.865866e-03 1.140260e-01 
-2.536432e-02 9.306473e-03 1.132382e-01 
-2.375114e-02 1.085699e-02 1.124672e-01 
-3.532922e-02 -2.159004e-02 1.145283e-01 
-2.503068e-02 9.294556e-03 1.108760e-01 
-1.654046e-03 3.103448e-02 1.186376e-01 
-2.583619e-02 8.675367e-03 1.092717e-01 
-1.942997e-03 3.011040e-02 1.174844e-01 
-2.893624e-02 -3.068270e-03 1.098950e-01 
-1.173607e-02 2.452470e-02 1.117665e-01 
-3.094244e-02 -2.040252e-02 1.130975e-01 
-2.408309e-02 1.279724e-02 1.064306e-01 
3.580436e-03 3.144566e-02 1.180440e-01 
-3.003999e-02 -5.940017e-03 1.075515e-01 
-1.425585e-02 2.144471e-02 1.085868e-01 
-2.946732e-02 -3.101113e-02 1.150361e-01 
-2.758256e-02 5.179366e-03 1.041139e-01 
-4.050604e-03 2.708792e-02 1.120094e-01 
-2.946688e-02 -2.110597e-02 1.104234e-01 
-2.357668e-02 1.278696e-02 1.028511e-01 
5.531346e-03 3.044234e-02 1.158160e-01 
-2.845316e-02 -1.296875e-02 1.070492e-01 
-1.955179e-02 1.910947e-02 1.020319e-01 
1.313210e-02 3.385123e-02 1.183353e-01 
-3.040534e-02 -4.082824e-03 1.014759e-01 
-1.405057e-02 2.309427e-02 1.029652e-01 
-2.627874e-02 -3.879234e-02 1.146118e-01 
-2.932146e-02 3.719074e-04 9.936620e-02 
-8.571935e-03 2.447194e-02 1.047739e-01 
-2.420626e-02 -3.756090e-02 1.142707e-01 
-2.919688e-02 2.933887e-03 9.726410e-02 
-5.521226e-03 2.498672e-02 1.052961e-01 
-2.308842e-02 -3.696555e-02 1.135208e-01 
-2.854859e-02 3.880159e-03 9.604930e-02 
-3.910045e-03 2.524617e-02 1.049655e-01 
-2.390847e-02 -3.518692e-02 1.110924e-01 
-2.890545e-02 5.498451e-03 9.394200e-02 
-2.776566e-03 2.584981e-02 1.042052e-01 
-2.130706e-02 -3.792735e-02 1.124563e-01 
-2.972754e-02 4.865158e-03 9.229070e-02 
-3.069136e-03 2.491307e-02 1.030302e-01 
-1.968301e-02 -4.006600e-02 1.129776e-01 
-3.055228e-02 4.230063e-03 9.063440e-02 
-4.795825e-03 2.500915e-02 1.005517e-01 
-1.948996e-02 -4.254183e-02 1.126720e-01 
-3.135718e-02 2.294540e-03 8.943300e-02 
-8.944692e-03 2.554491e-02 9.630990e-02 
-2.075103e-02 -4.293307e-02 1.106861e-01 
-3.167755e-02 1.319635e-03 8.822130e-02 
-1.021695e-02 2.529489e-02 9.423260e-02 
-1.963483e-02 -4.233856e-02 1.099373e-01 
-3.102621e-02 2.271798e-03 8.699060e-02 
-9.556509e-03 2.625501e-02 9.301930e-02 
-1.662601e-02 -4.047133e-02 1.100117e-01 
-2.990857e-02 5.493197e-03 8.528560e-02 
-4.548253e-03 2.667576e-02 9.489020e-02 
-2.677851e-02 -2.556178e-02 9.677920e-02 
-2.582601e-02 1.190621e-02 8.445460e-02 
2.483848e-02 2.179587e-02 1.149042e-01 
-3.233861e-02 -9.389554e-03 8.613090e-02 
-1.878411e-02 2.016893e-02 8.496530e-02 
-1.467422e-02 -4.268652e-02 1.082222e-01 
-2.989497e-02 4.498353e-03 8.160730e-02 
-6.411817e-03 2.714197e-02 8.950950e-02 
-2.991855e-02 -1.457609e-02 8.688430e-02 
-2.089500e-02 1.797257e-02 8.162410e-02 
-1.006501e-02 -4.657034e-02 1.101035e-01 
-2.911275e-02 8.069608e-03 7.818890e-02 
-7.495936e-04 2.721743e-02 9.063870e-02 
-3.179204e-02 -2.988063e-03 7.888920e-02 
-1.465307e-02 2.430450e-02 8.093120e-02 
-2.889583e-02 -1.624868e-02 8.414530e-02 
-2.086089e-02 1.700524e-02 7.793480e-02 
-3.484621e-03 -4.799257e-02 1.112084e-01 
-2.815620e-02 1.165820e-02 7.350420e-02 
-5.624532e-03 -4.902621e-02 1.088343e-01 
-3.046643e-02 8.096157e-03 7.182140e-02 
3.856936e-02 1.019305e-02 1.180660e-01 
-3.074632e-02 4.476382e-03 7.153960e-02 
-8.545557e-03 2.835223e-02 7.825980e-02 
-3.200844e-02 -1.086882e-03 7.127560e-02 
-1.277395e-02 2.494544e-02 7.522100e-02 
1.719221e-02 -4.272825e-02 1.183684e-01 
-1.603327e-02 2.080933e-02 7.309450e-02 
6.133990e-03 -4.521945e-02 1.103961e-01 
-2.331022e-02 1.547728e-02 6.862770e-02 
-1.022139e-04 -4.488247e-02 1.047034e-01 
-2.362882e-02 1.449904e-02 6.738350e-02 
-1.312649e-03 -4.888721e-02 1.040031e-01 
-2.745602e-02 1.064774e-02 6.474190e-02 
4.186737e-02 6.125784e-03 1.141665e-01 
2.244294e-02 -3.744113e-02 1.150384e-01 
3.797929e-02 -2.004381e-03 1.131134e-01 
1.365345e-02 -4.486696e-02 1.103393e-01 
-1.613219e-02 2.020059e-02 6.640100e-02 
4.304663e-03 -4.613814e-02 1.030248e-01 
3.867159e-02 -8.390072e-03 1.133372e-01 
4.945258e-03 -4.646760e-02 1.022933e-01 
3.975409e-02 -7.813530e-03 1.126111e-01 
5.585767e-03 -4.679700e-02 1.015618e-01 
4.176911e-02 -2.128382e-02 1.175989e-01 
3.009440e-02 2.718519e-02 9.198480e-02 
2.826693e-02 -3.603027e-02 1.122268e-01 
4.188845e-02 -7.866116e-03 1.115728e-01 
8.692700e-03 -4.738844e-02 1.013534e-01 
3.598424e-02 -2.910851e-02 1.138529e-01 
4.449265e-02 1.464501e-03 1.087442e-01 
2.149913e-02 -4.342044e-02 1.076065e-01 
4.069947e-02 -2.018569e-02 1.126559e-01 
3.110703e-02 2.432052e-02 8.977350e-02 
2.883472e-02 -3.732864e-02 1.092692e-01 
4.286697e-02 -1.063427e-02 1.094359e-01 
8.788478e-03 -4.844414e-02 9.790430e-02 
3.656050e-02 -3.039180e-02 1.109100e-01 
4.381553e-02 1.153485e-03 1.045309e-01 
2.119687e-02 -4.298378e-02 1.033752e-01 
4.131287e-02 -2.026464e-02 1.092950e-01 
3.305794e-02 2.331719e-02 8.754550e-02 
2.985836e-02 -3.772944e-02 1.062953e-01 
4.390964e-02 -1.099730e-02 1.064643e-01 
7.515479e-03 -4.865604e-02 9.315740e-02 
3.671295e-02 -3.139034e-02 1.075511e-01 
4.440980e-02 -1.023990e-04 1.015394e-01 
2.086018e-02 -4.492994e-02 9.996780e-02 
4.102217e-02 -2.214255e-02 1.059360e-01 
3.407057e-02 2.045252e-02 8.533410e-02 
2.865320e-02 -4.027143e-02 1.025099e-01 
4.359142e-02 -1.406689e-02 1.035085e-01 
-1.853699e-02 -4.358205e-02 6.871800e-02 
3.336012e-02 -3.365501e-02 1.021387e-01 
4.448214e-02 -4.707903e-03 9.940060e-02 
1.192527e-02 -4.870487e-02 9.106260e-02 
3.757768e-02 -2.914438e-02 1.021978e-01 
4.360859e-02 3.569257e-03 9.441460e-02 
1.802907e-02 -4.643078e-02 9.328340e-02 
3.920374e-02 -2.407457e-02 1.001932e-01 
3.658808e-02 1.532398e-02 8.370890e-02 
2.182863e-02 -4.515174e-02 9.422950e-02 
4.162699e-02 -2.198516e-02 9.986390e-02 
3.820223e-02 1.811037e-02 8.250300e-02 
2.562596e-02 -4.268616e-02 9.473970e-02 
4.323202e-02 -1.809818e-02 9.827720e-02 
3.896993e-02 2.284527e-02 7.995930e-02 
3.032290e-02 -3.841463e-02 9.523160e-02 
4.448320e-02 -1.147368e-02 9.540980e-02 
-1.015119e-02 -4.704740e-02 6.784510e-02 
3.502589e-02 -3.296481e-02 9.529280e-02 
4.577714e-02 -3.578901e-03 9.208900e-02 
1.167641e-02 -5.055430e-02 8.363350e-02 
3.660119e-02 -3.027772e-02 9.412320e-02 
4.480826e-02 1.039348e-03 8.834270e-02 
1.554485e-02 -4.804516e-02 8.417320e-02 
3.863655e-02 -2.667856e-02 9.294390e-02 
3.995286e-02 9.879147e-03 8.017110e-02 
1.848376e-02 -4.618183e-02 8.428410e-02 
4.021672e-02 -2.398323e-02 9.177100e-02 
3.893740e-02 1.464651e-02 7.629890e-02 
2.003949e-02 -4.587741e-02 8.397650e-02 
4.130992e-02 -2.340095e-02 9.103760e-02 
3.961883e-02 1.557719e-02 7.509970e-02 
2.023438e-02 -4.592286e-02 8.280660e-02 
4.151765e-02 -2.342996e-02 8.988690e-02 
3.983066e-02 1.557589e-02 7.390720e-02 
2.087774e-02 -4.625373e-02 8.207200e-02 
4.215317e-02 -2.375680e-02 8.916110e-02 
4.048283e-02 1.524048e-02 7.316240e-02 
2.016023e-02 -4.693588e-02 8.047000e-02 
4.190282e-02 -2.469622e-02 8.801630e-02 
4.022462e-02 1.430485e-02 7.197590e-02 
1.944076e-02 -4.762005e-02 7.886350e-02 
4.165197e-02 -2.563691e-02 8.686990e-02 
4.128536e-02 1.237111e-02 7.213930e-02 
1.871922e-02 -4.830620e-02 7.725230e-02 
4.182926e-02 -2.687503e-02 8.615120e-02 
4.190530e-02 1.077287e-02 7.185310e-02 
1.891420e-02 -4.835367e-02 7.607160e-02 
4.160915e-02 -2.661027e-02 8.456410e-02 
4.211859e-02 1.076811e-02 7.065910e-02 
2.002720e-02 -4.776091e-02 7.532500e-02 
4.227785e-02 -2.572885e-02 8.339650e-02 
4.016317e-02 1.369301e-02 6.673210e-02 
2.250435e-02 -4.681516e-02 7.545730e-02 
4.340800e-02 -2.393277e-02 8.221900e-02 
4.043842e-02 1.623916e-02 6.459520e-02 
2.452830e-02 -4.558597e-02 7.514670e-02 
4.453975e-02 -2.213413e-02 8.104000e-02 
4.115785e-02 1.845746e-02 6.290960e-02 
2.836630e-02 -4.308936e-02 7.570440e-02 
4.574103e-02 -1.789644e-02 7.897090e-02 
3.308949e-02 -3.997335e-02 7.669110e-02 
4.655395e-02 -1.210502e-02 7.600540e-02 
8.497584e-03 -5.247059e-02 6.173920e-02 
3.784240e-02 -3.445888e-02 7.677960e-02 
4.787358e-02 -4.110568e-03 7.255760e-02 
2.396227e-02 -4.612017e-02 6.952660e-02 
4.406546e-02 -2.256221e-02 7.550150e-02 
8.879381e-03 -5.257330e-02 5.931350e-02 
3.782227e-02 -3.424013e-02 7.399320e-02 
4.916384e-02 -4.774157e-03 7.108400e-02 
3.209824e-02 -4.140325e-02 7.111420e-02 
4.734025e-02 -1.465032e-02 7.220130e-02 
1.995527e-02 -4.947750e-02 6.372380e-02 
4.238268e-02 -2.724807e-02 7.201720e-02 
2.805120e-02 2.565907e-02 4.051710e-02 
3.524800e-02 -3.837591e-02 6.960880e-02 
4.877218e-02 -1.038594e-02 6.891490e-02 
2.496165e-02 -4.635079e-02 6.356100e-02 
4.555742e-02 -2.300787e-02 7.006300e-02 
9.838519e-03 -5.283122e-02 5.321790e-02 
3.929830e-02 -3.471998e-02 6.854250e-02 
4.809491e-02 -3.263999e-03 6.288350e-02 
2.903233e-02 -4.387696e-02 6.295300e-02 
4.784354e-02 -1.937819e-02 6.766700e-02 
1.304315e-02 -5.219704e-02 5.263260e-02 
4.108240e-02 -3.324384e-02 6.660630e-02 
4.555341e-02 1.476779e-03 5.632580e-02 
2.897029e-02 -4.489661e-02 6.056550e-02 
4.780909e-02 -2.035445e-02 6.530520e-02 
9.680959e-03 -5.122152e-02 4.687400e-02 
4.060300e-02 -3.394578e-02 6.378990e-02 
4.507611e-02 8.398787e-04 5.344150e-02 
2.890815e-02 -4.591926e-02 5.817110e-02 
4.734392e-02 -2.102896e-02 6.248400e-02 
3.965450e-02 -3.557742e-02 6.096970e-02 
4.675593e-02 -2.683183e-03 5.335860e-02 
2.794811e-02 -4.636689e-02 5.484480e-02 
4.644414e-02 -2.140122e-02 5.919430e-02 
9.513150e-03 -5.084217e-02 4.095570e-02 
4.101140e-02 -3.379821e-02 5.856150e-02 
4.594774e-02 7.911896e-04 4.856210e-02 
3.339248e-02 -4.353095e-02 5.516290e-02 
4.792109e-02 -1.588148e-02 5.537490e-02 
2.069695e-02 -5.019167e-02 4.656620e-02 
4.424598e-02 -2.829656e-02 5.611300e-02 
3.536877e-02 1.824467e-02 3.051710e-02 
3.795491e-02 -3.890280e-02 5.408790e-02 
4.901172e-02 -8.753050e-03 5.058680e-02 
2.483078e-02 -4.767766e-02 4.597460e-02 
4.611750e-02 -2.433619e-02 5.321180e-02 
3.313817e-02 2.565836e-02 2.290490e-02 
4.113445e-02 -3.584687e-02 5.256830e-02 
4.916489e-02 -3.433139e-03 4.576640e-02 
2.757264e-02 -4.552802e-02 4.444550e-02 
4.839461e-02 -2.190552e-02 5.123640e-02 
-1.565682e-02 -5.165524e-02 1.149260e-02 
3.923904e-02 -3.936121e-02 4.971960e-02 
4.901961e-02 -8.192384e-03 4.477180e-02 
1.439102e-03 -4.911324e-02 2.246700e-02 
4.550291e-02 -2.973069e-02 4.934970e-02 
3.756096e-02 1.623366e-02 2.439300e-02 
5.042429e-02 -2.043141e-02 4.805510e-02 
-8.552234e-03 -5.315214e-02 1.328520e-02 
3.854889e-02 -3.859960e-02 4.466590e-02 
4.968194e-02 -8.248790e-03 4.109320e-02 
1.524304e-03 -5.023946e-02 1.862030e-02 
4.059072e-02 -3.735844e-02 4.437320e-02 
4.954149e-02 -5.415457e-03 3.840860e-02 
4.646889e-03 -4.953859e-02 1.935480e-02 
4.262955e-02 -3.611909e-02 4.408100e-02 
4.895980e-02 -2.239180e-03 3.522390e-02 
1.159660e-02 -4.995434e-02 2.360750e-02 
4.513695e-02 -3.394614e-02 4.378090e-02 
4.394822e-02 5.579909e-03 2.658700e-02 
1.466592e-02 -4.926091e-02 2.432360e-02 
4.629724e-02 -3.211146e-02 4.254530e-02 
4.197795e-02 9.869501e-03 2.180080e-02 
2.054341e-02 -4.908700e-02 2.751030e-02 
4.705844e-02 -2.873143e-02 4.035000e-02 
4.093096e-02 1.483547e-02 1.745770e-02 
2.451077e-02 -4.774093e-02 2.869590e-02 
4.826023e-02 -2.564286e-02 3.862290e-02 
4.125040e-02 1.879895e-02 1.461100e-02 
2.847711e-02 -4.515603e-02 2.937570e-02 
4.906591e-02 -2.098438e-02 3.592210e-02 
4.206422e-02 2.376333e-02 1.173810e-02 
3.151741e-02 -4.198788e-02 2.907280e-02 
4.987636e-02 -1.629844e-02 3.320540e-02 
5.503925e-03 -5.469496e-02 1.190090e-02 
3.823857e-02 -3.747709e-02 3.118800e-02 
5.036819e-02 -7.452166e-03 2.849060e-02 
1.680318e-02 -5.141687e-02 1.820860e-02 
4.493481e-02 -3.176046e-02 3.279260e-02 
4.599074e-02 6.482664e-03 1.769220e-02 
2.885239e-02 -4.504583e-02 2.386290e-02 
4.995181e-02 -2.109756e-02 3.097660e-02 
9.979582e-03 -5.468269e-02 1.109820e-02 
4.073300e-02 -3.630322e-02 2.841480e-02 
4.845812e-02 -2.983915e-03 2.073800e-02 
2.878825e-02 -4.609611e-02 2.134930e-02 
4.860001e-02 -2.116595e-02 2.703290e-02 
1.471047e-02 -5.490995e-02 1.210080e-02 
4.122935e-02 -3.387790e-02 2.491790e-02 
4.764059e-02 5.672885e-04 1.566160e-02 
3.203040e-02 -4.421076e-02 2.029620e-02 
4.871549e-02 -1.710993e-02 2.253020e-02 
2.180406e-02 -5.282650e-02 1.408850e-02 
4.406372e-02 -2.919363e-02 2.236800e-02 
5.007564e-02 5.704916e-03 1.255320e-02 
3.857969e-02 -3.815405e-02 2.020080e-02 
5.035738e-02 -7.581697e-03 1.693940e-02 
3.264028e-02 -4.560481e-02 1.701110e-02 
4.890471e-02 -1.814199e-02 1.876090e-02 
2.718447e-02 -4.963695e-02 1.275600e-02 
4.668360e-02 -2.421466e-02 1.805000e-02 
2.547149e-02 -5.228412e-02 1.099340e-02 
4.635233e-02 -2.773224e-02 1.781430e-02 
2.804470e-02 -5.129179e-02 1.122790e-02 
4.753677e-02 -2.585594e-02 1.653450e-02 
3.486197e-02 -4.668532e-02 1.344840e-02 
5.113189e-02 -1.919880e-02 1.521020e-02 
4.495060e-02 -3.669731e-02 1.609970e-02 
3.668466e-02 -4.641573e-02 1.191010e-02 
5.294916e-02 -1.893000e-02 1.367640e-02 
4.972454e-02 -2.818360e-02 1.349490e-02 
4.750342e-02 -3.425629e-02 1.278400e-02 
4.669047e-02 -3.872057e-02 1.256070e-02 
4.783820e-02 -3.810924e-02 1.179080e-02 
-5.328770e-02 5.261984e-03 1.192831e-01 
-5.712111e-02 1.712189e-03 1.160940e-01 
-4.541540e-02 6.971460e-03 1.190725e-01 
-6.102004e-02 -3.176449e-03 1.121283e-01 
-5.555043e-02 -2.232492e-03 1.134866e-01 
-5.102634e-02 -4.809661e-04 1.139785e-01 
-4.517919e-02 4.062980e-05 1.157477e-01 
-4.001757e-02 -2.910031e-04 1.175096e-01 
-3.791321e-02 -7.001028e-04 1.175911e-01 
-4.901357e-02 -4.816658e-03 1.118104e-01 
-2.423716e-02 1.538276e-02 1.170911e-01 
-3.206554e-02 2.674377e-03 1.168778e-01 
-9.971681e-03 2.636661e-02 1.191365e-01 
-2.495324e-02 1.194562e-02 1.156103e-01 
-3.827450e-02 -7.130949e-03 1.150424e-01 
-1.972895e-02 1.868849e-02 1.143661e-01 
-3.617738e-02 -7.529077e-03 1.151272e-01 
-1.850518e-02 1.908701e-02 1.136041e-01 
-3.685066e-02 -9.667824e-03 1.143921e-01 
-1.960519e-02 1.736037e-02 1.124419e-01 
-3.878666e-02 -1.349765e-02 1.136738e-01 
-2.197425e-02 1.393389e-02 1.112948e-01 
4.385607e-03 3.168769e-02 1.186294e-01 
-2.581871e-02 7.544172e-03 1.105991e-01 
-2.672252e-03 2.874390e-02 1.145912e-01 
-2.943066e-02 -5.026684e-04 1.107666e-01 
-1.002782e-02 2.449585e-02 1.109405e-01 
-3.381922e-02 -1.348430e-02 1.126659e-01 
-2.043001e-02 1.721795e-02 1.068543e-01 
9.212041e-03 3.160238e-02 1.176201e-01 
-2.744164e-02 3.615921e-03 1.075093e-01 
-5.902646e-03 2.656257e-02 1.098278e-01 
-3.201251e-02 -1.353436e-02 1.111570e-01 
-1.946071e-02 1.800644e-02 1.044635e-01 
1.139845e-02 3.113175e-02 1.165421e-01 
-2.775605e-02 2.680221e-03 1.051418e-01 
-6.183920e-03 2.566482e-02 1.074742e-01 
-3.056877e-02 -1.890089e-02 1.118019e-01 
-2.147045e-02 1.579910e-02 1.016628e-01 
9.897029e-03 2.857981e-02 1.142457e-01 
-3.038274e-02 -3.328080e-03 1.036787e-01 
-1.300285e-02 2.389954e-02 1.016836e-01 
-2.645841e-02 7.612564e-03 9.978000e-02 
-6.459774e-04 2.643725e-02 1.064694e-01 
-2.966863e-02 -1.946336e-02 1.087098e-01 
-2.097205e-02 1.569860e-02 9.806210e-02 
1.124934e-02 2.766991e-02 1.115940e-01 
-3.114455e-02 -8.084984e-03 1.014418e-01 
-1.589523e-02 2.124253e-02 9.724040e-02 
1.973022e-02 2.930145e-02 1.145595e-01 
-3.065516e-02 2.249071e-04 9.668280e-02 
-1.018934e-02 2.464889e-02 9.775070e-02 
2.824491e-02 2.925606e-02 1.183160e-01 
-2.948236e-02 6.535727e-03 9.321080e-02 
-4.312451e-03 2.633460e-02 9.914380e-02 
-2.914436e-02 -2.941825e-02 1.083279e-01 
-2.654256e-02 1.122081e-02 9.150700e-02 
3.565074e-03 2.588909e-02 1.026929e-01 
-2.565453e-02 -2.406943e-02 1.066825e-01 
-2.251385e-02 1.635932e-02 9.023950e-02 
1.115688e-02 2.712941e-02 1.053286e-01 
-3.055340e-02 -9.595204e-03 9.590710e-02 
-1.740276e-02 2.194068e-02 8.941230e-02 
2.770173e-02 2.462001e-02 1.150021e-01 
-2.971855e-02 7.206977e-03 8.744380e-02 
-4.852190e-03 2.751560e-02 9.301930e-02 
-2.734046e-02 -1.947863e-02 9.968830e-02 
-2.115705e-02 1.841440e-02 8.610930e-02 
2.685837e-02 2.291471e-02 1.127217e-01 
-2.789604e-02 1.014437e-02 8.451490e-02 
-4.933621e-04 2.789015e-02 9.280440e-02 
-3.202459e-02 2.338451e-03 8.426950e-02 
-1.134041e-02 2.701456e-02 8.537680e-02 
-3.142072e-02 1.879810e-03 8.349950e-02 
-1.116513e-02 2.698916e-02 8.415340e-02 
-3.040888e-02 3.984564e-03 8.179650e-02 
-9.270925e-03 2.826041e-02 8.336730e-02 
-2.809693e-02 7.832733e-03 8.007120e-02 
-3.974589e-03 2.909012e-02 8.483840e-02 
-2.837621e-02 8.213358e-03 7.837520e-02 
-3.794380e-03 2.906640e-02 8.361830e-02 
-2.800581e-02 9.466250e-03 7.666540e-02 
-2.129984e-03 2.903902e-02 8.329780e-02 
-2.873066e-02 1.027434e-02 7.449220e-02 
-1.529294e-03 2.858281e-02 8.253180e-02 
-2.877381e-02 8.938819e-03 7.372440e-02 
-3.251999e-03 2.899497e-02 7.994700e-02 
-2.991492e-02 7.151858e-03 7.249660e-02 
-5.632134e-03 2.854305e-02 7.735530e-02 
-3.009554e-02 -1.461975e-03 7.504160e-02 
-1.105266e-02 2.504521e-02 7.431720e-02 
5.162939e-03 -4.653166e-02 1.163885e-01 
-1.695061e-02 2.195385e-02 7.078610e-02 
-8.483307e-03 -4.647399e-02 1.067068e-01 
-2.267238e-02 1.709325e-02 6.818030e-02 
4.406327e-02 8.878659e-04 1.167915e-01 
-2.598835e-02 1.137056e-02 6.745320e-02 
1.695977e-03 2.929875e-02 7.607970e-02 
1.224223e-02 -4.321711e-02 1.153852e-01 
-8.611805e-03 2.624577e-02 6.979890e-02 
7.639403e-03 -4.708460e-02 1.130937e-01 
-1.342329e-02 2.359309e-02 6.670480e-02 
1.473724e-03 -4.686817e-02 1.078943e-01 
-1.172627e-02 2.356943e-02 6.639230e-02 
7.995119e-03 -4.723675e-02 1.108363e-01 
4.495297e-02 -2.098430e-03 1.124059e-01 
1.668675e-02 -4.286008e-02 1.128920e-01 
4.370523e-02 -4.952597e-03 1.117108e-01 
1.270439e-02 -4.591405e-02 1.105870e-01 
3.780000e-02 -2.857497e-02 1.179965e-01 
3.397771e-02 2.196047e-02 9.155040e-02 
2.022521e-02 -4.048554e-02 1.114236e-01 
3.977076e-02 -1.775119e-02 1.128036e-01 
-5.525549e-03 -4.706272e-02 9.714770e-02 
2.784426e-02 -3.660926e-02 1.130713e-01 
4.406465e-02 -1.060636e-02 1.108071e-01 
8.110851e-03 -4.690903e-02 1.043356e-01 
3.636048e-02 -3.232385e-02 1.150975e-01 
3.336739e-02 1.563469e-02 9.023380e-02 
1.836666e-02 -4.393604e-02 1.080758e-01 
3.904995e-02 -2.225154e-02 1.106872e-01 
-6.865276e-03 -4.978102e-02 9.368110e-02 
2.623904e-02 -3.887434e-02 1.093262e-01 
4.358431e-02 -1.393431e-02 1.082701e-01 
7.256953e-03 -4.724371e-02 1.000768e-01 
3.562131e-02 -3.260129e-02 1.109565e-01 
3.486926e-02 1.306696e-02 8.845210e-02 
1.892265e-02 -4.415755e-02 1.046815e-01 
4.037251e-02 -2.316330e-02 1.081315e-01 
-4.513383e-03 -5.026897e-02 9.146260e-02 
2.778539e-02 -3.863449e-02 1.063485e-01 
4.515724e-02 -1.365905e-02 1.052867e-01 
1.058072e-02 -4.726384e-02 9.829790e-02 
3.631700e-02 -3.010011e-02 1.063535e-01 
3.697219e-02 1.587993e-02 8.444660e-02 
2.379426e-02 -4.291520e-02 1.033129e-01 
4.302348e-02 -1.973905e-02 1.043084e-01 
3.327368e-03 -4.877397e-02 9.178800e-02 
3.235557e-02 -3.435087e-02 1.033222e-01 
4.470278e-02 -3.967714e-03 9.640420e-02 
1.886556e-02 -4.498634e-02 9.858200e-02 
4.149576e-02 -2.500300e-02 1.033234e-01 
-3.025074e-03 -4.983895e-02 8.559400e-02 
2.934973e-02 -3.817438e-02 1.006812e-01 
4.497666e-02 -1.121505e-02 9.751780e-02 
1.249280e-02 -4.718631e-02 9.295510e-02 
3.827456e-02 -2.997538e-02 1.011085e-01 
3.799918e-02 1.571614e-02 7.850510e-02 
2.534894e-02 -4.246893e-02 9.761890e-02 
4.464268e-02 -1.921200e-02 9.862990e-02 
6.028499e-03 -4.941791e-02 8.724730e-02 
3.430743e-02 -3.423774e-02 9.805380e-02 
4.707624e-02 -4.154759e-03 9.148270e-02 
2.018314e-02 -4.571936e-02 9.327090e-02 
4.250329e-02 -2.530526e-02 9.765350e-02 
-3.586640e-03 -5.035200e-02 7.881260e-02 
2.971055e-02 -3.933743e-02 9.499000e-02 
4.575854e-02 -1.266879e-02 9.221170e-02 
9.607431e-03 -4.825233e-02 8.501880e-02 
3.635074e-02 -3.163616e-02 9.418600e-02 
4.698864e-02 9.161171e-04 8.496050e-02 
2.135934e-02 -4.512830e-02 8.980550e-02 
4.299100e-02 -2.393497e-02 9.338200e-02 
-2.652450e-03 -5.095697e-02 7.569040e-02 
2.991948e-02 -3.918941e-02 9.112680e-02 
4.674159e-02 -1.320635e-02 8.917970e-02 
1.156035e-02 -4.837970e-02 8.237020e-02 
3.755626e-02 -3.101763e-02 9.073720e-02 
3.953788e-02 1.252787e-02 7.028920e-02 
2.353395e-02 -4.407422e-02 8.674710e-02 
4.445562e-02 -2.211218e-02 8.949790e-02 
4.415968e-03 -5.147033e-02 7.654870e-02 
3.369028e-02 -3.686049e-02 8.849210e-02 
4.726694e-02 -7.387575e-03 8.264680e-02 
2.092875e-02 -4.560973e-02 8.315180e-02 
4.340141e-02 -2.505152e-02 8.764470e-02 
5.177350e-03 -5.199297e-02 7.462210e-02 
3.445741e-02 -3.736243e-02 8.661240e-02 
4.731952e-02 -7.097149e-03 7.987100e-02 
2.130893e-02 -4.576213e-02 8.081760e-02 
4.417544e-02 -2.554509e-02 8.576430e-02 
6.562573e-03 -5.168254e-02 7.268450e-02 
3.546480e-02 -3.668413e-02 8.429160e-02 
4.762329e-02 -5.587792e-03 7.663380e-02 
2.268982e-02 -4.545079e-02 7.890670e-02 
4.483205e-02 -2.447741e-02 8.301080e-02 
9.368529e-03 -5.125862e-02 7.163310e-02 
3.745721e-02 -3.555020e-02 8.238870e-02 
4.891603e-02 -3.632719e-03 7.381440e-02 
2.668231e-02 -4.338880e-02 7.784650e-02 
4.586944e-02 -1.943595e-02 7.847670e-02 
1.217037e-02 -5.083526e-02 7.058320e-02 
3.871346e-02 -3.368156e-02 7.961380e-02 
4.984737e-02 -1.273698e-03 7.053500e-02 
2.768730e-02 -4.271335e-02 7.549310e-02 
4.580089e-02 -1.758668e-02 7.480590e-02 
1.254251e-02 -5.099709e-02 6.820200e-02 
3.837637e-02 -3.308047e-02 7.640480e-02 
3.549800e-02 1.923066e-02 4.765630e-02 
2.546314e-02 -4.461648e-02 7.227860e-02 
4.547044e-02 -2.131582e-02 7.380460e-02 
1.127190e-02 -5.246950e-02 6.537700e-02 
3.755122e-02 -3.486224e-02 7.407730e-02 
5.092560e-02 -4.700530e-03 6.759180e-02 
2.484965e-02 -4.523435e-02 6.947660e-02 
4.563768e-02 -2.263737e-02 7.190230e-02 
1.101909e-02 -5.347117e-02 6.298780e-02 
3.733982e-02 -3.582436e-02 7.173500e-02 
5.073124e-02 -5.628502e-03 6.521610e-02 
2.423343e-02 -4.585486e-02 6.666240e-02 
4.580534e-02 -2.396094e-02 6.999730e-02 
5.895513e-03 -5.290238e-02 5.645370e-02 
3.551899e-02 -3.807477e-02 6.895630e-02 
4.965870e-02 -8.619872e-03 6.330490e-02 
1.995960e-02 -4.872337e-02 6.250630e-02 
4.387291e-02 -2.896620e-02 6.856910e-02 
3.877651e-02 2.333292e-02 3.787210e-02 
3.145522e-02 -4.245573e-02 6.574060e-02 
4.745520e-02 -1.489299e-02 6.232650e-02 
1.525328e-02 -5.125476e-02 5.785340e-02 
4.119871e-02 -3.323146e-02 6.624490e-02 
3.714155e-02 1.765600e-02 3.686600e-02 
2.722209e-02 -4.530328e-02 6.158970e-02 
4.587676e-02 -2.032441e-02 6.134140e-02 
6.638314e-03 -5.174287e-02 4.940500e-02 
3.752354e-02 -3.796980e-02 6.347100e-02 
5.098523e-02 -7.641974e-03 5.683480e-02 
2.193796e-02 -4.864852e-02 5.695050e-02 
4.367915e-02 -2.657993e-02 6.036580e-02 
4.049719e-02 2.406119e-02 3.153000e-02 
3.369609e-02 -4.116509e-02 5.976640e-02 
4.976562e-02 -1.349550e-02 5.630950e-02 
1.706551e-02 -4.961620e-02 5.131290e-02 
4.198115e-02 -3.041470e-02 5.846220e-02 
3.911210e-02 1.966060e-02 3.001750e-02 
3.122870e-02 -4.428048e-02 5.694580e-02 
4.843394e-02 -1.772649e-02 5.485530e-02 
1.316299e-02 -5.011606e-02 4.606680e-02 
4.090296e-02 -3.342181e-02 5.654740e-02 
4.033241e-02 1.400322e-02 3.098810e-02 
3.062289e-02 -4.490258e-02 5.408790e-02 
4.860567e-02 -1.906371e-02 5.291300e-02 
1.314148e-02 -4.991191e-02 4.313000e-02 
4.094227e-02 -3.318471e-02 5.368240e-02 
3.998115e-02 1.478252e-02 2.745030e-02 
3.102321e-02 -4.505634e-02 5.167400e-02 
4.940314e-02 -1.956542e-02 5.095950e-02 
1.167631e-02 -4.982011e-02 3.922550e-02 
4.110837e-02 -3.453127e-02 5.174200e-02 
3.976166e-02 1.384249e-02 2.490790e-02 
2.659962e-02 -4.636808e-02 4.647300e-02 
4.844024e-02 -2.418425e-02 4.996920e-02 
-5.178925e-03 -4.888132e-02 2.397390e-02 
3.489372e-02 -4.267067e-02 4.894150e-02 
4.958814e-02 -1.325990e-02 4.351390e-02 
7.497956e-04 -4.975009e-02 2.718670e-02 
3.697503e-02 -4.023180e-02 4.770410e-02 
4.983212e-02 -8.797774e-03 3.987480e-02 
6.607581e-03 -5.060850e-02 3.036100e-02 
3.905935e-02 -3.778934e-02 4.646480e-02 
4.932538e-02 -3.488837e-03 3.523350e-02 
1.262909e-02 -5.023148e-02 3.300070e-02 
4.139690e-02 -3.412877e-02 4.474450e-02 
4.123362e-02 1.323761e-02 1.900600e-02 
1.675178e-02 -4.960209e-02 3.416560e-02 
4.311292e-02 -3.129852e-02 4.302750e-02 
4.184110e-02 1.754254e-02 1.564400e-02 
2.188149e-02 -4.849568e-02 3.579900e-02 
4.508792e-02 -2.723601e-02 4.082180e-02 
4.166386e-02 2.275425e-02 1.121790e-02 
2.555762e-02 -4.750658e-02 3.646640e-02 
4.644059e-02 -2.400040e-02 3.861470e-02 
-1.064088e-02 -5.370903e-02 1.246260e-02 
2.882862e-02 -4.615243e-02 3.665040e-02 
4.742357e-02 -2.036171e-02 3.591640e-02 
-5.683283e-03 -5.217659e-02 1.371240e-02 
3.233522e-02 -4.358563e-02 3.634480e-02 
4.904718e-02 -1.585174e-02 3.319360e-02 
3.492703e-03 -5.154743e-02 1.850530e-02 
3.671653e-02 -3.895707e-02 3.554190e-02 
4.893777e-02 -6.396682e-03 2.650410e-02 
1.210900e-02 -5.055586e-02 2.271960e-02 
4.071772e-02 -3.395014e-02 3.425660e-02 
4.613306e-02 6.149398e-03 1.614560e-02 
2.267066e-02 -4.861137e-02 2.783910e-02 
4.561322e-02 -2.685687e-02 3.246810e-02 
-3.467117e-03 -5.528324e-02 1.112260e-02 
3.213076e-02 -4.437037e-02 3.091910e-02 
4.890380e-02 -1.653708e-02 2.773200e-02 
1.057501e-02 -5.178847e-02 1.791860e-02 
3.931671e-02 -3.509957e-02 2.958340e-02 
4.896156e-02 5.369069e-04 1.689630e-02 
2.661558e-02 -4.617871e-02 2.503210e-02 
4.728675e-02 -2.209605e-02 2.674910e-02 
1.178180e-02 -5.270503e-02 1.637970e-02 
3.935323e-02 -3.486142e-02 2.660130e-02 
4.978696e-02 3.252887e-05 1.484790e-02 
2.869169e-02 -4.500025e-02 2.299870e-02 
4.823887e-02 -1.972704e-02 2.323950e-02 
1.614894e-02 -5.214585e-02 1.633520e-02 
4.130254e-02 -3.206134e-02 2.358030e-02 
5.179373e-02 2.960357e-03 1.174790e-02 
3.204990e-02 -4.210780e-02 2.094520e-02 
5.047739e-02 -1.562894e-02 1.969190e-02 
2.362588e-02 -5.012471e-02 1.777540e-02 
4.517730e-02 -2.668206e-02 2.052040e-02 
1.374341e-02 -5.549073e-02 1.203090e-02 
3.899886e-02 -3.530911e-02 1.934570e-02 
5.292169e-02 -3.949126e-03 1.202480e-02 
3.473073e-02 -4.137841e-02 1.814370e-02 
5.090783e-02 -1.247964e-02 1.385870e-02 
3.237751e-02 -4.488451e-02 1.691430e-02 
5.083301e-02 -1.837025e-02 1.565320e-02 
3.361587e-02 -4.448121e-02 1.614320e-02 
5.131714e-02 -1.717302e-02 1.387130e-02 
3.766840e-02 -3.941108e-02 1.482610e-02 
5.350902e-02 -1.005298e-02 1.000440e-02 
4.543949e-02 -3.205498e-02 1.498490e-02 
3.605016e-02 -4.498623e-02 1.384700e-02 
5.262604e-02 -1.648637e-02 1.004290e-02 
4.817487e-02 -3.000606e-02 1.293090e-02 
4.326636e-02 -3.693858e-02 1.173090e-02 
3.937886e-02 -4.339981e-02 1.102740e-02 
3.933649e-02 -4.471247e-02 1.027280e-02 
-5.084068e-02 3.296706e-03 1.240492e-01 
-5.745670e-02 3.301150e-03 1.183689e-01 
-4.664569e-02 3.364967e-03 1.221801e-01 
-4.042696e-02 5.747494e-03 1.226298e-01 
-3.725703e-02 6.899764e-03 1.222700e-01 
-6.850297e-02 3.506618e-04 1.081732e-01 
-3.349723e-02 5.771566e-03 1.208351e-01 
-3.529625e-02 3.065084e-03 1.201100e-01 
-4.879149e-02 -6.132838e-05 1.139682e-01 
-1.323803e-02 2.441378e-02 1.182779e-01 
-3.808220e-02 2.939691e-05 1.178037e-01 
-1.085791e-02 2.482957e-02 1.179299e-01 
-3.870970e-02 -7.686655e-04 1.166395e-01 
-1.599561e-02 2.140503e-02 1.159654e-01 
-5.915124e-02 1.231779e-03 1.043828e-01 
-2.590839e-02 1.025579e-02 1.157531e-01 
-1.176250e-03 2.949621e-02 1.176047e-01 
-3.924113e-02 -3.301542e-03 1.151524e-01 
-1.687384e-02 1.935317e-02 1.140537e-01 
-6.634595e-02 -1.705735e-03 9.981030e-02 
-2.992736e-02 3.637059e-03 1.147310e-01 
-7.223645e-03 2.579787e-02 1.140560e-01 
-5.797947e-02 1.743104e-03 1.007471e-01 
-2.433410e-02 1.030008e-02 1.126402e-01 
7.609441e-04 2.908005e-02 1.149276e-01 
-1.948757e-02 1.626696e-02 1.105485e-01 
8.585524e-03 3.064855e-02 1.166405e-01 
-3.502313e-02 -6.605554e-03 1.138304e-01 
-1.616586e-02 2.080567e-02 1.084646e-01 
1.482243e-02 3.077427e-02 1.183551e-01 
-2.986615e-02 -1.169265e-03 1.121751e-01 
-1.024757e-02 2.534993e-02 1.076490e-01 
-2.323885e-02 1.292019e-02 1.066050e-01 
3.639386e-03 2.933124e-02 1.110633e-01 
-2.962925e-02 -2.976500e-03 1.106818e-01 
-1.104043e-02 2.499781e-02 1.048467e-01 
2.212672e-02 3.150792e-02 1.177386e-01 
-2.173476e-02 1.472845e-02 1.037728e-01 
6.835097e-03 2.871269e-02 1.103958e-01 
-2.927614e-02 -1.474009e-03 1.074615e-01 
-9.939007e-03 2.561302e-02 1.024512e-01 
2.356370e-02 3.163373e-02 1.158323e-01 
-2.297835e-02 1.313734e-02 1.013995e-01 
5.318807e-03 2.764859e-02 1.076326e-01 
-3.069073e-02 -8.034572e-03 1.077121e-01 
-1.419358e-02 2.282456e-02 9.922160e-02 
1.918957e-02 2.941213e-02 1.122967e-01 
-2.704132e-02 6.447740e-03 1.003773e-01 
-3.419892e-03 2.785350e-02 1.005602e-01 
-2.131255e-02 1.488770e-02 9.734260e-02 
8.362586e-03 2.746453e-02 1.053617e-01 
-2.995169e-02 -1.038438e-02 1.054679e-01 
-1.449013e-02 2.191284e-02 9.561840e-02 
1.897274e-02 2.853546e-02 1.088036e-01 
-2.898075e-02 2.356413e-03 9.769410e-02 
-7.394586e-03 2.673648e-02 9.523070e-02 
3.112076e-02 2.504518e-02 1.155308e-01 
-2.510581e-02 1.150440e-02 9.332120e-02 
1.711567e-03 2.857831e-02 9.749180e-02 
-3.056100e-02 -1.951603e-02 1.062649e-01 
-2.011525e-02 1.928263e-02 9.024810e-02 
1.300089e-02 2.697218e-02 1.027622e-01 
-2.882959e-02 -6.222510e-03 9.853230e-02 
-1.219464e-02 2.487064e-02 8.985380e-02 
2.388279e-02 2.756178e-02 1.066457e-01 
-2.650733e-02 1.202176e-02 8.833970e-02 
4.403486e-04 2.916820e-02 9.256610e-02 
-2.917820e-02 -2.436138e-02 1.057472e-01 
-1.842455e-02 2.106863e-02 8.611790e-02 
1.507613e-02 2.825297e-02 9.919210e-02 
-2.982610e-02 6.000350e-03 8.730800e-02 
-6.990998e-03 2.912867e-02 8.614510e-02 
3.633057e-02 2.019586e-02 1.131808e-01 
-2.003801e-02 1.995915e-02 8.322690e-02 
1.324752e-02 2.767401e-02 9.595600e-02 
-2.867930e-02 8.302504e-03 8.393840e-02 
-4.736952e-03 2.999660e-02 8.413620e-02 
4.178918e-02 1.960284e-02 1.137470e-01 
-1.427625e-02 2.329367e-02 8.163280e-02 
2.328840e-02 2.797328e-02 9.830790e-02 
-2.308258e-02 1.729402e-02 7.910550e-02 
8.388786e-03 2.804131e-02 8.929380e-02 
-2.622038e-02 1.080283e-02 7.976820e-02 
-8.361755e-04 3.054744e-02 8.180380e-02 
-2.770764e-02 7.532531e-03 7.948290e-02 
-4.056899e-03 2.977851e-02 7.922430e-02 
-2.798018e-02 6.233669e-03 7.872030e-02 
-4.675240e-03 2.898173e-02 7.800030e-02 
-2.727610e-02 1.083116e-02 7.514190e-02 
-1.105518e-03 2.964432e-02 7.812590e-02 
-2.504116e-02 1.522658e-02 7.246190e-02 
3.917046e-03 3.004135e-02 7.916150e-02 
-2.445391e-02 1.640481e-02 7.073520e-02 
5.216253e-03 3.022491e-02 7.838460e-02 
-1.952030e-02 2.083270e-02 6.943260e-02 
4.482313e-02 -5.320536e-03 1.178952e-01 
-1.545734e-02 2.276303e-02 6.909180e-02 
4.734074e-02 -5.345353e-03 1.179641e-01 
-1.414125e-02 2.294888e-02 6.830480e-02 
4.782003e-02 -5.863227e-03 1.172474e-01 
-1.513007e-02 2.264185e-02 6.658660e-02 
4.728189e-02 -6.628599e-03 1.161368e-01 
-1.265967e-02 2.307451e-02 6.626500e-02 
-5.765422e-03 -4.262920e-02 1.062120e-01 
4.119976e-02 -1.499641e-02 1.151856e-01 
-6.490280e-03 2.593728e-02 6.513090e-02 
7.629939e-03 -4.496591e-02 1.120886e-01 
4.642987e-02 -9.891033e-03 1.124826e-01 
2.572569e-02 -4.085450e-02 1.180679e-01 
4.310858e-02 -1.185552e-02 1.105764e-01 
1.790453e-02 -4.007758e-02 1.121867e-01 
4.018670e-02 -1.982418e-02 1.123512e-01 
1.263392e-02 -4.459205e-02 1.107135e-01 
3.670726e-02 -2.687500e-02 1.133067e-01 
3.765092e-03 -4.607221e-02 1.055463e-01 
3.193068e-02 -3.373117e-02 1.134614e-01 
-8.208712e-03 -4.376897e-02 9.648930e-02 
2.687003e-02 -4.015262e-02 1.132140e-01 
4.301036e-02 -1.085262e-02 1.048160e-01 
1.939463e-02 -4.325635e-02 1.097329e-01 
4.137138e-02 -2.258486e-02 1.094927e-01 
1.184548e-02 -4.639063e-02 1.062177e-01 
3.628279e-02 -2.904099e-02 1.092470e-01 
2.625095e-03 -4.747079e-02 1.005826e-01 
3.120132e-02 -3.548814e-02 1.090017e-01 
4.774853e-02 -6.465227e-03 1.009320e-01 
2.479591e-02 -4.178167e-02 1.079508e-01 
4.301774e-02 -1.546875e-02 1.023628e-01 
1.654306e-02 -4.559846e-02 1.044373e-01 
3.977808e-02 -2.655742e-02 1.058398e-01 
6.944483e-03 -4.778703e-02 9.921820e-02 
3.365578e-02 -3.328619e-02 1.051943e-01 
-4.771767e-03 -4.748269e-02 9.135050e-02 
2.723408e-02 -3.959586e-02 1.041379e-01 
4.407818e-02 -1.097066e-02 9.639610e-02 
1.927663e-02 -4.383106e-02 1.010111e-01 
4.226355e-02 -2.432409e-02 1.020128e-01 
6.389078e-03 -4.838766e-02 9.536420e-02 
3.347714e-02 -3.426358e-02 1.018116e-01 
-1.418445e-02 -4.524151e-02 8.089190e-02 
2.245300e-02 -4.279322e-02 9.954450e-02 
4.224737e-02 -1.850249e-02 9.595240e-02 
1.022347e-02 -4.817814e-02 9.473150e-02 
3.605700e-02 -3.237857e-02 9.951890e-02 
-6.128834e-03 -4.859151e-02 8.465530e-02 
2.636652e-02 -4.106191e-02 9.807000e-02 
4.473257e-02 -1.455500e-02 9.235080e-02 
1.447677e-02 -4.685345e-02 9.367000e-02 
3.879600e-02 -2.893753e-02 9.637470e-02 
9.164787e-04 -4.907877e-02 8.618700e-02 
3.012084e-02 -3.736900e-02 9.532960e-02 
4.769202e-02 -9.428798e-03 8.828560e-02 
1.977323e-02 -4.525277e-02 9.302490e-02 
4.199924e-02 -2.434693e-02 9.278190e-02 
8.001251e-03 -4.801786e-02 8.683380e-02 
3.492818e-02 -3.339143e-02 9.299220e-02 
-6.741631e-03 -4.899853e-02 7.788390e-02 
2.592878e-02 -4.142229e-02 9.151870e-02 
4.525942e-02 -1.611789e-02 8.700340e-02 
1.566007e-02 -4.780404e-02 8.833350e-02 
3.974907e-02 -2.940248e-02 9.064810e-02 
2.826984e-03 -4.933887e-02 8.075930e-02 
3.178523e-02 -3.716686e-02 8.958710e-02 
-1.320413e-02 -4.386347e-02 6.709600e-02 
2.498957e-02 -4.312521e-02 8.808120e-02 
4.523167e-02 -1.910406e-02 8.482990e-02 
1.724309e-02 -4.784392e-02 8.528120e-02 
4.135960e-02 -2.941615e-02 8.761220e-02 
7.205028e-03 -4.965667e-02 7.940490e-02 
3.487045e-02 -3.579482e-02 8.653120e-02 
-1.024435e-02 -4.563998e-02 6.574950e-02 
2.658243e-02 -4.315828e-02 8.503520e-02 
4.540195e-02 -1.688767e-02 7.958310e-02 
1.396236e-02 -4.817055e-02 7.963980e-02 
4.000273e-02 -3.222510e-02 8.460010e-02 
-2.249721e-03 -5.058468e-02 7.058760e-02 
2.918191e-02 -4.126450e-02 8.269250e-02 
4.717444e-02 -1.359669e-02 7.588930e-02 
1.569231e-02 -4.852524e-02 7.816550e-02 
4.083744e-02 -3.128581e-02 8.184200e-02 
5.931571e-04 -5.065560e-02 6.953540e-02 
3.074131e-02 -3.964063e-02 7.991630e-02 
4.878976e-02 -1.189548e-02 7.306830e-02 
2.029184e-02 -4.761000e-02 7.754440e-02 
4.215124e-02 -2.561969e-02 7.642070e-02 
5.599612e-03 -5.015069e-02 6.936860e-02 
3.380298e-02 -3.660320e-02 7.711180e-02 
5.075812e-02 -6.943362e-03 6.842140e-02 
2.364841e-02 -4.500550e-02 7.516760e-02 
4.495704e-02 -2.209740e-02 7.315370e-02 
9.942561e-03 -4.879777e-02 6.830380e-02 
3.717646e-02 -3.398478e-02 7.473620e-02 
2.837579e-02 -4.254076e-02 7.366050e-02 
4.824021e-02 -1.739926e-02 6.941220e-02 
1.491430e-02 -4.829836e-02 6.814020e-02 
4.055966e-02 -3.135885e-02 7.235380e-02 
2.461618e-04 -5.287250e-02 6.115770e-02 
3.024788e-02 -4.133697e-02 7.129130e-02 
4.927628e-02 -1.480310e-02 6.566850e-02 
1.634193e-02 -4.823065e-02 6.620360e-02 
4.169966e-02 -3.084455e-02 6.998910e-02 
1.244590e-03 -5.395132e-02 5.966480e-02 
3.092629e-02 -4.197104e-02 6.937760e-02 
4.968158e-02 -1.497291e-02 6.328010e-02 
1.808689e-02 -4.858842e-02 6.471640e-02 
4.254697e-02 -2.989206e-02 6.716970e-02 
4.859901e-03 -5.330296e-02 5.860760e-02 
3.386022e-02 -4.048536e-02 6.743660e-02 
2.241135e-02 -4.723953e-02 6.365720e-02 
4.477538e-02 -2.548411e-02 6.295650e-02 
1.172230e-02 -5.178455e-02 5.890650e-02 
3.875598e-02 -3.644352e-02 6.501860e-02 
-6.711857e-04 -5.267664e-02 5.081030e-02 
3.111384e-02 -4.320001e-02 6.346280e-02 
4.964500e-02 -1.566322e-02 5.682640e-02 
2.113278e-02 -4.856236e-02 5.963570e-02 
4.385801e-02 -2.718684e-02 5.938720e-02 
1.084362e-02 -5.198572e-02 5.437300e-02 
3.768315e-02 -3.615320e-02 6.009800e-02 
-2.181105e-03 -5.042502e-02 4.427790e-02 
3.137496e-02 -4.308638e-02 5.943290e-02 
5.025780e-02 -1.592157e-02 5.320100e-02 
2.458115e-02 -4.760450e-02 5.692920e-02 
4.643675e-02 -2.488244e-02 5.530020e-02 
1.290189e-02 -5.088561e-02 5.071740e-02 
3.948023e-02 -3.459279e-02 5.603010e-02 
-2.281088e-02 -3.960223e-02 2.077150e-02 
2.874697e-02 -4.425189e-02 5.448320e-02 
5.005577e-02 -2.059252e-02 5.191790e-02 
9.332540e-03 -5.112598e-02 4.594940e-02 
3.789642e-02 -3.736907e-02 5.411080e-02 
4.585281e-02 7.410537e-03 2.991830e-02 
1.669705e-02 -5.034964e-02 4.844810e-02 
4.264609e-02 -3.318612e-02 5.285680e-02 
2.259810e-02 -4.944196e-02 4.999840e-02 
4.634682e-02 -2.927018e-02 5.114500e-02 
-2.035496e-02 -4.231873e-02 1.815570e-02 
2.873992e-02 -4.539495e-02 4.966140e-02 
4.951991e-02 -2.076999e-02 4.612990e-02 
3.861747e-03 -5.218644e-02 3.770940e-02 
3.487275e-02 -4.135379e-02 4.932470e-02 
4.643104e-02 -2.339319e-03 3.085070e-02 
1.021622e-02 -5.169198e-02 3.980000e-02 
3.917461e-02 -3.831352e-02 4.853890e-02 
4.720333e-02 6.565674e-03 2.406280e-02 
1.368507e-02 -5.092514e-02 3.997910e-02 
4.135452e-02 -3.582983e-02 4.683370e-02 
4.515028e-02 1.612520e-02 1.511110e-02 
1.572982e-02 -5.002058e-02 3.920870e-02 
4.277772e-02 -3.405655e-02 4.513190e-02 
4.727157e-02 1.706371e-02 1.431180e-02 
1.777456e-02 -4.911602e-02 3.843820e-02 
4.420508e-02 -3.227808e-02 4.342520e-02 
-2.303630e-02 -4.721393e-02 1.091320e-02 
1.904887e-02 -4.893599e-02 3.767620e-02 
4.487140e-02 -3.121430e-02 4.172180e-02 
-2.251139e-02 -4.778111e-02 1.012830e-02 
1.923261e-02 -4.904746e-02 3.644120e-02 
4.447310e-02 -3.042364e-02 3.954500e-02 
-1.893070e-02 -4.864448e-02 1.140860e-02 
2.159757e-02 -4.857598e-02 3.615220e-02 
4.500935e-02 -2.728741e-02 3.638100e-02 
-1.457457e-02 -4.875248e-02 1.267230e-02 
2.626846e-02 -4.593308e-02 3.583840e-02 
4.816709e-02 -2.240171e-02 3.365320e-02 
-6.903353e-03 -4.959687e-02 1.647110e-02 
2.876844e-02 -4.386850e-02 3.457760e-02 
4.859427e-02 -1.710778e-02 2.896810e-02 
-4.643079e-04 -5.072887e-02 1.972280e-02 
3.266424e-02 -4.195311e-02 3.427340e-02 
4.829259e-02 -8.668604e-03 2.172180e-02 
9.243144e-03 -5.095467e-02 2.440410e-02 
3.855634e-02 -3.742887e-02 3.346150e-02 
4.974853e-02 3.141104e-03 1.328180e-02 
2.079468e-02 -4.855600e-02 2.849400e-02 
4.525360e-02 -2.849294e-02 3.019560e-02 
-1.866043e-03 -5.211824e-02 1.539850e-02 
3.045347e-02 -4.196794e-02 2.862290e-02 
4.887102e-02 -1.274342e-02 2.044180e-02 
1.455440e-02 -5.054867e-02 2.307470e-02 
4.193321e-02 -3.439092e-02 2.922290e-02 
-4.239362e-03 -5.414245e-02 1.234460e-02 
2.756720e-02 -4.304811e-02 2.467280e-02 
4.936419e-02 -1.883732e-02 2.193700e-02 
1.413927e-02 -5.151133e-02 2.055990e-02 
4.064580e-02 -3.398289e-02 2.526680e-02 
-1.378850e-03 -5.583622e-02 1.232630e-02 
2.872852e-02 -4.253276e-02 2.215270e-02 
4.965692e-02 -1.689506e-02 1.789810e-02 
1.750294e-02 -5.041214e-02 1.900690e-02 
4.276584e-02 -3.109606e-02 2.174430e-02 
4.958049e-03 -5.499687e-02 1.278380e-02 
3.332246e-02 -3.953015e-02 2.009010e-02 
5.249046e-02 -1.104309e-02 1.277710e-02 
2.526959e-02 -4.813407e-02 1.942230e-02 
4.801664e-02 -2.525900e-02 1.816670e-02 
1.649415e-02 -5.222697e-02 1.522140e-02 
4.212476e-02 -3.330922e-02 1.848210e-02 
1.031970e-02 -5.458148e-02 1.146070e-02 
3.765395e-02 -3.780645e-02 1.727100e-02 
1.083400e-02 -5.513721e-02 1.069190e-02 
3.816364e-02 -3.835718e-02 1.650900e-02 
1.692054e-02 -5.418641e-02 1.242660e-02 
4.256802e-02 -3.524433e-02 1.570440e-02 
2.530203e-02 -5.104140e-02 1.412270e-02 
4.810017e-02 -2.811942e-02 1.285640e-02 
3.439384e-02 -4.352134e-02 1.326570e-02 
2.067245e-02 -5.524526e-02 1.112820e-02 
4.504577e-02 -3.453357e-02 1.239170e-02 
3.962431e-02 -4.139969e-02 1.220240e-02 
3.670516e-02 -4.444206e-02 1.096770e-02 
-5.985989e-02 5.136614e-03 1.178488e-01 
-4.945415e-02 6.063342e-03 1.199698e-01 
-4.788473e-02 5.495009e-03 1.196280e-01 
-5.041948e-02 3.655946e-03 1.184795e-01 
-5.735530e-02 3.211031e-03 1.148103e-01 
-4.407223e-02 3.217072e-03 1.186138e-01 
-4.367166e-02 2.595136e-03 1.178624e-01 
-7.891070e-03 2.464610e-02 1.183662e-01 
-5.436557e-02 2.495419e-03 1.125209e-01 
-2.475179e-02 1.411343e-02 1.169347e-01 
5.565075e-03 3.048585e-02 1.187555e-01 
-4.287043e-02 1.351080e-03 1.163597e-01 
-1.745412e-02 2.083025e-02 1.144167e-01 
1.123604e-02 3.332212e-02 1.179566e-01 
-4.246981e-02 7.290524e-04 1.156083e-01 
-1.679207e-02 1.967165e-02 1.140874e-01 
1.163521e-02 3.270237e-02 1.172080e-01 
-4.583799e-02 4.485882e-04 1.131875e-01 
-1.878058e-02 1.677802e-02 1.137837e-01 
8.678800e-03 3.197514e-02 1.152225e-01 
-2.191206e-02 1.383926e-02 1.130648e-01 
5.313717e-03 2.958452e-02 1.140834e-01 
-6.090454e-02 5.992908e-03 1.013571e-01 
-2.600998e-02 8.166266e-03 1.136347e-01 
-5.626851e-04 2.765108e-02 1.116851e-01 
-6.832641e-02 6.089174e-03 9.708410e-02 
-2.982163e-02 1.999559e-03 1.146235e-01 
-6.220881e-03 2.516640e-02 1.097010e-01 
2.585157e-02 2.956030e-02 1.195485e-01 
-3.388134e-02 -3.618355e-03 1.151870e-01 
-1.216182e-02 2.320979e-02 1.072773e-01 
1.987740e-02 2.818460e-02 1.167789e-01 
-1.682724e-02 1.855264e-02 1.070025e-01 
1.267757e-02 2.948455e-02 1.118784e-01 
-5.745350e-02 6.827321e-03 9.692840e-02 
-2.308446e-02 1.004122e-02 1.084721e-01 
2.958247e-03 2.851811e-02 1.073610e-01 
-6.759498e-02 5.143377e-03 9.264490e-02 
-2.849214e-02 3.742479e-05 1.112054e-01 
-6.636201e-03 2.699422e-02 1.032189e-01 
2.743310e-02 2.710467e-02 1.165822e-01 
-1.514174e-02 2.052447e-02 1.025446e-01 
1.610616e-02 2.770064e-02 1.104620e-01 
-5.711108e-02 6.524683e-03 9.327610e-02 
-2.231606e-02 1.139234e-02 1.040446e-01 
4.316108e-03 2.885116e-02 1.037910e-01 
-7.032667e-02 5.800231e-03 8.715050e-02 
-2.863068e-02 7.652712e-04 1.068223e-01 
-6.184726e-03 2.674046e-02 9.962690e-02 
2.884221e-02 2.473321e-02 1.147744e-01 
-3.528990e-02 -4.485513e-03 1.061377e-01 
-1.344370e-02 2.251104e-02 9.805350e-02 
1.882845e-02 2.753027e-02 1.077733e-01 
-5.707937e-02 4.553213e-03 9.052120e-02 
-2.234077e-02 1.435755e-02 9.826670e-02 
6.169547e-03 2.809739e-02 1.010779e-01 
-2.892440e-02 -2.776266e-03 1.050134e-01 
-7.777806e-03 2.585765e-02 9.559280e-02 
2.671760e-02 2.546217e-02 1.096249e-01 
-1.928024e-02 1.813291e-02 9.449630e-02 
1.149200e-02 2.700393e-02 1.012727e-01 
-6.826384e-02 4.800974e-03 8.186650e-02 
-2.799685e-02 7.253894e-03 9.649360e-02 
-2.992041e-03 2.862625e-02 9.313330e-02 
3.517271e-02 1.917316e-02 1.143802e-01 
-1.439737e-02 2.311629e-02 9.068040e-02 
1.878320e-02 2.653569e-02 1.018821e-01 
-6.194799e-02 4.883791e-03 8.165460e-02 
-2.118636e-02 1.776311e-02 8.998240e-02 
8.995034e-03 2.830287e-02 9.551670e-02 
-2.563335e-02 1.251269e-02 9.016620e-02 
1.066864e-03 3.073191e-02 8.946020e-02 
4.172035e-02 1.493692e-02 1.158586e-01 
-2.897483e-02 5.152121e-03 9.213620e-02 
-5.198115e-03 2.931511e-02 8.648580e-02 
3.760493e-02 1.465690e-02 1.130952e-01 
-2.339322e-02 -2.355708e-02 1.112729e-01 
-9.820789e-03 2.682241e-02 8.485020e-02 
2.434059e-02 2.801774e-02 9.796200e-02 
-1.509752e-02 2.317902e-02 8.367540e-02 
1.803289e-02 2.715674e-02 9.462980e-02 
-6.291278e-02 4.849851e-03 7.449960e-02 
-1.920897e-02 1.957644e-02 8.294780e-02 
1.231989e-02 2.741747e-02 9.081440e-02 
-6.310671e-02 5.290064e-03 7.277430e-02 
-1.842829e-02 2.062634e-02 8.125140e-02 
1.361765e-02 2.737300e-02 9.004560e-02 
-1.284539e-02 2.410136e-02 7.996760e-02 
4.291675e-02 8.961139e-04 1.176508e-01 
-6.994502e-03 2.702754e-02 7.914340e-02 
4.802795e-02 7.227337e-03 1.144250e-01 
-2.507353e-02 1.282285e-02 7.947420e-02 
1.828611e-03 3.117979e-02 7.875490e-02 
-6.604767e-02 6.400794e-03 6.535640e-02 
-1.774710e-02 2.251266e-02 7.490700e-02 
4.492516e-02 -3.452978e-04 1.154700e-01 
-2.704964e-02 7.558396e-03 7.934750e-02 
-1.737130e-03 2.919097e-02 7.585570e-02 
-6.304816e-02 5.759880e-03 6.424420e-02 
-1.445397e-02 2.357240e-02 7.286120e-02 
4.613646e-02 1.260352e-05 1.131967e-01 
-2.297334e-02 1.417096e-02 7.405030e-02 
5.036199e-03 3.036745e-02 7.518650e-02 
-1.231901e-02 -3.874542e-02 1.114851e-01 
-6.595643e-03 2.762305e-02 7.076870e-02 
-6.765634e-02 2.956858e-03 5.998380e-02 
-1.701911e-02 2.206255e-02 6.867120e-02 
4.426062e-02 -1.007154e-02 1.151452e-01 
-2.927107e-03 -4.122878e-02 1.144706e-01 
8.720300e-04 2.996251e-02 6.962500e-02 
-6.217600e-02 4.688645e-03 5.835900e-02 
-1.214886e-02 2.488236e-02 6.612000e-02 
4.572234e-02 -5.160411e-03 1.100059e-01 
3.244165e-03 -4.198888e-02 1.150143e-01 
9.073283e-03 3.062199e-02 6.989410e-02 
-8.795063e-03 -4.260608e-02 1.090829e-01 
4.596142e-03 3.038543e-02 6.679650e-02 
-6.058315e-02 8.969493e-03 5.201860e-02 
5.922476e-03 3.034001e-02 6.601070e-02 
-6.078308e-03 -4.316048e-02 1.080295e-01 
4.260377e-03 2.905951e-02 6.477610e-02 
-5.848260e-02 9.989873e-03 4.941450e-02 
2.074273e-02 -4.306069e-02 1.180442e-01 
-6.865564e-02 3.142126e-03 4.821640e-02 
8.760055e-03 -4.321662e-02 1.117974e-01 
