# .PCD v.6 - Point Cloud Data file format
FIELDS x y z 
SIZE 4 4 4 
TYPE F F F 
COUNT 1 1 1 
WIDTH 1172
HEIGHT 1
POINTS 1172
DATA ascii
-3.327837e-03 -1.390586e-02 7.064450e-02 
2.771763e-03 1.394221e-02 7.668880e-02 
-8.516937e-03 -1.915758e-02 6.527610e-02 
6.454263e-03 8.449772e-03 7.764120e-02 
-1.302654e-02 -2.561146e-02 6.029790e-02 
7.130963e-03 2.070912e-03 7.640020e-02 
-5.640137e-03 3.097219e-02 6.906150e-02 
8.016663e-03 -6.477138e-03 7.517290e-02 
-3.189371e-04 2.201354e-02 7.096730e-02 
8.775629e-04 -1.588914e-02 6.813280e-02 
8.162263e-03 1.186060e-02 7.507860e-02 
-1.279974e-02 -2.650947e-02 5.628760e-02 
1.110616e-02 1.077132e-03 7.519120e-02 
-6.038837e-03 3.027125e-02 6.467650e-02 
8.806363e-03 -1.271897e-02 7.134110e-02 
1.104616e-02 1.508962e-02 7.468740e-02 
-1.000064e-02 -2.751814e-02 5.549040e-02 
1.316786e-02 8.840150e-05 7.395000e-02 
-5.843637e-03 2.940052e-02 6.204720e-02 
5.592363e-03 -1.679382e-02 6.607390e-02 
1.280376e-02 1.090412e-02 7.302880e-02 
1.462406e-02 -7.300148e-03 7.187150e-02 
1.131386e-02 2.073445e-02 7.122890e-02 
-8.464237e-03 -2.843813e-02 5.241180e-02 
1.528646e-02 -8.113085e-04 7.142380e-02 
-1.241837e-03 2.936925e-02 6.130160e-02 
-1.321537e-03 -2.186115e-02 5.665170e-02 
1.594796e-02 5.667772e-03 7.097670e-02 
-1.114074e-02 4.018554e-02 5.340770e-02 
1.007636e-02 -1.552170e-02 6.400900e-02 
1.599806e-02 1.217579e-02 7.008690e-02 
1.476806e-02 -1.234656e-02 6.629250e-02 
1.696876e-02 1.541795e-02 6.966410e-02 
-2.179424e-02 -3.930557e-02 3.639740e-02 
1.595276e-02 -1.122824e-02 6.588560e-02 
1.692636e-02 1.659261e-02 6.836840e-02 
1.611756e-02 -1.222870e-02 6.459560e-02 
1.831006e-02 1.553510e-02 6.797750e-02 
-1.885174e-02 4.808064e-02 4.271480e-02 
1.454006e-02 -1.425537e-02 6.195340e-02 
1.918756e-02 1.344551e-02 6.714940e-02 
-1.397954e-02 4.550415e-02 4.474400e-02 
1.254216e-02 -1.845289e-02 5.885340e-02 
1.966436e-02 9.244182e-03 6.589000e-02 
-7.642137e-03 4.060947e-02 4.772070e-02 
1.052876e-02 -2.268248e-02 5.572970e-02 
2.074956e-02 5.003232e-03 6.507660e-02 
-2.662337e-03 3.589084e-02 4.972040e-02 
4.075363e-03 -2.687817e-02 4.930180e-02 
2.122796e-02 7.923915e-04 6.381470e-02 
1.670296e-02 2.891466e-02 6.226590e-02 
-3.578837e-03 -3.336825e-02 4.180710e-02 
2.191436e-02 -5.577838e-03 6.256630e-02 
2.104276e-02 2.227250e-02 6.371490e-02 
1.965866e-02 -1.293582e-02 5.905820e-02 
2.243746e-02 1.481247e-02 6.292510e-02 
-5.302937e-03 4.528060e-02 4.421120e-02 
1.563456e-02 -2.140661e-02 5.414400e-02 
2.333066e-02 6.312602e-03 6.169310e-02 
7.055763e-03 3.549701e-02 5.142270e-02 
2.797863e-03 -3.100230e-02 4.253720e-02 
2.372356e-02 -3.248668e-03 6.001530e-02 
2.163596e-02 2.469255e-02 6.026810e-02 
-7.100037e-03 -4.206386e-02 3.299230e-02 
2.056656e-02 -1.380178e-02 5.560390e-02 
2.455276e-02 1.391414e-02 6.040280e-02 
-1.194337e-03 4.416045e-02 4.304510e-02 
1.135436e-02 -2.656636e-02 4.647550e-02 
2.525796e-02 1.144372e-03 5.874710e-02 
1.891096e-02 2.942292e-02 5.581930e-02 
5.943629e-04 -3.968980e-02 3.611870e-02 
2.293056e-02 -1.155953e-02 5.480520e-02 
2.568736e-02 1.617946e-02 5.870080e-02 
-6.679371e-04 4.655695e-02 4.081570e-02 
1.335146e-02 -2.645641e-02 4.522370e-02 
2.599766e-02 1.292222e-03 5.660370e-02 
1.964916e-02 2.959284e-02 5.366380e-02 
2.845663e-03 -4.179652e-02 3.487120e-02 
2.327156e-02 -1.356552e-02 5.220250e-02 
2.723546e-02 1.414845e-02 5.702940e-02 
6.644663e-03 4.388715e-02 4.338930e-02 
1.201186e-02 -3.069268e-02 4.115600e-02 
2.715336e-02 -2.869018e-03 5.448770e-02 
2.445626e-02 2.514151e-02 5.428850e-02 
-8.509337e-03 5.662197e-02 3.133790e-02 
2.158306e-02 -1.985752e-02 4.776360e-02 
2.799486e-02 7.891942e-03 5.447830e-02 
1.427706e-02 3.689212e-02 4.595870e-02 
2.573163e-03 -4.385723e-02 3.029810e-02 
2.306886e-02 -1.548238e-02 4.781070e-02 
2.885376e-02 1.221466e-02 5.405920e-02 
1.142246e-02 4.162215e-02 4.271590e-02 
6.802063e-03 -4.043726e-02 3.234270e-02 
2.465466e-02 -1.220523e-02 4.786540e-02 
2.861306e-02 1.553920e-02 5.273550e-02 
1.178986e-02 4.496582e-02 4.183310e-02 
1.057136e-02 -3.926390e-02 3.389870e-02 
2.522756e-02 -1.106139e-02 4.700600e-02 
2.918126e-02 1.667358e-02 5.188320e-02 
9.232263e-03 4.644849e-02 3.858560e-02 
1.189626e-02 -3.920348e-02 3.351450e-02 
2.529556e-02 -1.098078e-02 4.568810e-02 
2.925166e-02 1.677442e-02 5.057990e-02 
1.180106e-02 4.631100e-02 3.915510e-02 
1.321896e-02 -3.914317e-02 3.313080e-02 
2.597346e-02 -1.092157e-02 4.483570e-02 
2.992386e-02 1.683313e-02 4.973460e-02 
1.373496e-02 4.623960e-02 3.924680e-02 
1.327916e-02 -3.908270e-02 3.177550e-02 
2.665126e-02 -1.086237e-02 4.398340e-02 
2.999496e-02 1.693416e-02 4.842870e-02 
1.504126e-02 4.623380e-02 3.886320e-02 
1.575206e-02 -3.791798e-02 3.235740e-02 
2.833456e-02 -8.678588e-03 4.405150e-02 
3.046006e-02 1.914756e-02 4.756750e-02 
1.613506e-02 4.841399e-02 3.846470e-02 
2.500876e-02 -3.022846e-02 3.864150e-02 
3.080366e-02 -2.228588e-03 4.502020e-02 
3.111126e-02 2.562137e-02 4.713770e-02 
-1.360937e-03 6.148416e-02 2.440180e-02 
2.708736e-02 -1.930832e-02 3.960300e-02 
3.164216e-02 8.563902e-03 4.502500e-02 
2.163576e-02 3.731050e-02 3.920030e-02 
2.719496e-02 -3.229895e-02 3.741790e-02 
3.175916e-02 -4.245438e-03 4.287200e-02 
3.266286e-02 2.358575e-02 4.546250e-02 
5.048963e-03 -5.002189e-02 1.754880e-02 
2.893076e-02 -1.160991e-02 3.878570e-02 
3.226246e-02 1.623426e-02 4.327700e-02 
2.164736e-02 4.511530e-02 3.696160e-02 
2.994466e-02 -2.132147e-02 3.752810e-02 
3.267026e-02 6.651832e-03 4.156500e-02 
2.693656e-02 3.502797e-02 3.901710e-02 
2.934426e-02 -3.321172e-02 3.485500e-02 
3.268536e-02 -5.098228e-03 3.939320e-02 
3.418506e-02 2.273207e-02 4.246930e-02 
7.801663e-03 -4.982950e-02 1.540680e-02 
3.278196e-02 -1.149537e-02 3.764550e-02 
3.428346e-02 1.641079e-02 4.073550e-02 
-8.390937e-03 6.434102e-02 1.051230e-02 
3.356376e-02 -1.252091e-02 3.680150e-02 
3.565926e-02 1.534944e-02 4.036400e-02 
-6.364037e-03 6.423886e-02 1.065230e-02 
3.822806e-02 -1.044540e-02 3.923310e-02 
3.672166e-02 1.752170e-02 3.996990e-02 
9.371363e-03 -5.077866e-02 1.225780e-02 
3.473396e-02 -1.672426e-02 3.465450e-02 
3.742086e-02 1.115447e-02 3.870160e-02 
2.530986e-02 4.983048e-02 3.179740e-02 
3.622216e-02 -1.885158e-02 3.429290e-02 
3.889686e-02 9.020582e-03 3.833950e-02 
2.609526e-02 4.880025e-02 3.094960e-02 
3.708196e-02 -1.447248e-02 3.388560e-02 
4.034216e-02 1.330939e-02 3.840030e-02 
2.689706e-02 -4.044636e-02 2.258250e-02 
4.287826e-02 -5.994638e-03 3.769340e-02 
4.136946e-02 2.188166e-02 3.843040e-02 
3.789016e-02 -2.733355e-02 3.084440e-02 
4.292846e-02 5.182615e-04 3.680290e-02 
4.377726e-02 2.818198e-02 3.940720e-02 
3.885466e-02 -2.402685e-02 3.044700e-02 
4.446886e-02 3.739312e-03 3.687360e-02 
4.237046e-02 3.161232e-02 3.714310e-02 
4.033966e-02 -2.614862e-02 3.008860e-02 
4.534636e-02 1.649722e-03 3.604550e-02 
4.442416e-02 2.942112e-02 3.725120e-02 
2.975626e-02 -4.130818e-02 1.912850e-02 
4.549386e-02 -1.111732e-02 3.388190e-02 
4.456916e-02 1.674551e-02 3.509520e-02 
3.220756e-02 4.678066e-02 2.727920e-02 
4.257316e-02 -2.280120e-02 2.931970e-02 
4.637736e-02 4.989142e-03 3.433590e-02 
4.368856e-02 3.291540e-02 3.413730e-02 
4.149106e-02 -2.921001e-02 2.659510e-02 
4.766856e-02 -1.396808e-03 3.353840e-02 
4.615496e-02 2.643070e-02 3.428050e-02 
3.334136e-02 -3.782430e-02 1.799440e-02 
4.789066e-02 -8.811088e-03 3.180420e-02 
4.696126e-02 1.902561e-02 3.302120e-02 
2.767726e-02 -4.218820e-02 1.167350e-02 
4.780206e-02 -1.301575e-02 3.004170e-02 
4.804486e-02 1.479103e-02 3.220910e-02 
3.672856e-02 4.682134e-02 2.531350e-02 
4.771336e-02 -1.723312e-02 2.827380e-02 
4.912836e-02 1.055645e-02 3.139690e-02 
4.408666e-02 3.869593e-02 2.930350e-02 
4.772836e-02 -2.254384e-02 2.650840e-02 
5.031526e-02 5.248572e-03 3.059240e-02 
4.762836e-02 3.315385e-02 3.039390e-02 
4.743076e-02 -2.462398e-02 2.471440e-02 
5.060826e-02 3.192422e-03 2.929120e-02 
4.850516e-02 3.106582e-02 2.956650e-02 
4.692346e-02 -2.454270e-02 2.289970e-02 
5.127896e-02 3.251002e-03 2.844790e-02 
4.917536e-02 3.112436e-02 2.872380e-02 
5.051206e-02 -1.807672e-02 2.489290e-02 
5.191226e-02 9.717272e-03 2.803380e-02 
4.687906e-02 3.785426e-02 2.593020e-02 
5.231926e-02 -1.160674e-02 2.543720e-02 
5.254486e-02 1.617387e-02 2.762030e-02 
4.433546e-02 -3.190236e-02 1.600420e-02 
5.401476e-02 -4.091878e-03 2.597140e-02 
5.190916e-02 2.378698e-02 2.624910e-02 
4.687736e-02 -2.642540e-02 1.707260e-02 
5.474946e-02 1.306652e-03 2.556680e-02 
5.206266e-02 2.921194e-02 2.536830e-02 
5.155216e-02 -1.887417e-02 2.006240e-02 
5.411506e-02 8.914322e-03 2.419310e-02 
4.790856e-02 3.718535e-02 2.111290e-02 
5.490436e-02 -1.029539e-02 2.204860e-02 
5.453966e-02 1.752292e-02 2.376680e-02 
4.625406e-02 -2.947419e-02 1.206640e-02 
5.649066e-02 -1.709408e-03 2.258280e-02 
5.321946e-02 2.626611e-02 2.190450e-02 
5.250846e-02 -1.974913e-02 1.654890e-02 
5.623056e-02 8.015962e-03 2.167070e-02 
4.369676e-02 4.120631e-02 1.366800e-02 
5.766666e-02 -5.863498e-03 2.044590e-02 
5.497576e-02 2.208378e-02 2.024720e-02 
5.258126e-02 -1.851655e-02 1.386090e-02 
5.630846e-02 9.280182e-03 1.901280e-02 
5.267026e-02 -1.844159e-02 1.251780e-02 
5.698016e-02 9.338832e-03 1.816820e-02 
4.513776e-02 4.144559e-02 1.061310e-02 
5.843816e-02 7.211112e-03 1.782230e-02 
4.731996e-02 3.812309e-02 1.077080e-02 
5.832346e-02 9.456162e-03 1.647900e-02 
5.918426e-02 -4.416898e-03 1.476240e-02 
5.111276e-02 2.510765e-02 1.014570e-02 
5.798986e-02 1.503374e-02 1.377850e-02 
5.979336e-02 4.410882e-03 1.167460e-02 
6.099176e-02 1.203679e-02 1.041810e-02 
-3.115621e-02 -9.184879e-03 1.625733e-01 
-2.976164e-02 -1.581389e-02 1.625247e-01 
-2.623279e-02 3.698616e-02 1.617844e-01 
-3.148717e-02 1.785974e-03 1.593701e-01 
-2.721946e-02 -1.617350e-02 1.616072e-01 
-2.349625e-02 3.113164e-02 1.612713e-01 
-2.799373e-02 -1.059619e-02 1.596433e-01 
-2.060022e-02 3.584937e-02 1.615083e-01 
-2.708823e-02 -7.493084e-03 1.587948e-01 
-1.607246e-02 3.796961e-02 1.628498e-01 
-2.581705e-02 -7.679310e-03 1.583382e-01 
-1.670801e-02 3.718876e-02 1.613108e-01 
-2.349031e-02 -1.022238e-02 1.586342e-01 
-1.896856e-02 3.148180e-02 1.590712e-01 
-2.028980e-02 -1.718884e-02 1.596915e-01 
-1.941684e-02 2.528323e-02 1.579256e-01 
-1.419734e-02 -2.571818e-02 1.625608e-01 
-2.293672e-02 3.728658e-03 1.557799e-01 
-9.557663e-03 4.094069e-02 1.617269e-01 
-2.180447e-02 -6.063276e-03 1.557637e-01 
-1.503093e-02 3.293416e-02 1.576938e-01 
-1.472018e-02 -1.808142e-02 1.594265e-01 
-1.921736e-02 1.055717e-02 1.551910e-01 
-3.721289e-03 4.486994e-02 1.625893e-01 
-2.024551e-02 -3.024472e-03 1.540931e-01 
-1.244278e-02 3.355052e-02 1.567814e-01 
-1.119748e-02 -2.075019e-02 1.592658e-01 
-1.686127e-02 8.061858e-03 1.543012e-01 
-4.013237e-03 3.990580e-02 1.602816e-01 
-1.519604e-02 -1.033146e-02 1.550857e-01 
-9.818843e-03 1.926116e-02 1.567093e-01 
2.292974e-03 4.355689e-02 1.626727e-01 
-1.646146e-02 -3.590828e-03 1.527385e-01 
-1.311075e-02 2.337926e-02 1.532876e-01 
-1.555999e-02 -5.013715e-04 1.518939e-01 
-1.161029e-02 2.631143e-02 1.528154e-01 
-9.097141e-03 -2.721133e-02 1.560518e-01 
-1.413795e-02 1.404397e-03 1.514294e-01 
-1.079302e-02 2.834746e-02 1.519800e-01 
-7.101618e-03 -2.541801e-02 1.559544e-01 
-1.271813e-02 3.307418e-03 1.509656e-01 
-8.780363e-03 3.007269e-02 1.518878e-01 
-6.291533e-03 -2.339969e-02 1.551263e-01 
-1.190029e-02 5.344947e-03 1.501296e-01 
-9.158581e-03 3.241955e-02 1.503093e-01 
-5.826733e-03 -1.814977e-02 1.539092e-01 
-8.443525e-03 9.961451e-03 1.507620e-01 
-9.901785e-04 3.568135e-02 1.538930e-01 
-6.299087e-03 -9.524157e-03 1.519305e-01 
-5.946325e-03 1.796650e-02 1.506274e-01 
1.299723e-02 4.037135e-02 1.609794e-01 
-6.097867e-03 4.900955e-05 1.503071e-01 
-4.557603e-03 2.729470e-02 1.497432e-01 
-2.218265e-03 -1.233717e-02 1.521600e-01 
-3.626708e-03 1.547858e-02 1.497508e-01 
-2.222979e-04 -1.793502e-02 1.524869e-01 
-3.978559e-03 1.035554e-02 1.485993e-01 
-8.439285e-04 -1.141371e-02 1.505271e-01 
-1.656931e-03 1.626149e-02 1.484829e-01 
-1.453088e-04 4.351534e-03 1.488633e-01 
-3.299919e-04 1.313337e-03 1.476998e-01 
5.630864e-04 4.373607e-03 1.468631e-01 
-6.483493e-04 1.111292e-02 1.445074e-01 
-2.659571e-04 6.968806e-03 1.425263e-01 
-8.955091e-03 1.036921e-02 1.331565e-01 
-6.626522e-03 6.886263e-03 1.310844e-01 
-6.698885e-03 1.248170e-02 1.282143e-01 
-3.934675e-03 6.737407e-03 1.265519e-01 
-8.929998e-03 3.850345e-03 1.197087e-01 
-2.954130e-03 8.067961e-03 1.208102e-01 
-6.215738e-03 3.697882e-03 1.151273e-01 
-2.135220e-03 7.280557e-03 1.150493e-01 
-2.640813e-03 6.604988e-03 1.109257e-01 
-2.543269e-03 5.784718e-03 1.071905e-01 
-7.498835e-03 3.934545e-03 1.001019e-01 
-8.559266e-03 4.461350e-03 9.544320e-02 
-2.387285e-03 1.080415e-02 9.793930e-02 
-1.731535e-02 4.522629e-03 8.553540e-02 
-3.069077e-03 7.975243e-03 9.373280e-02 
-2.227078e-03 1.007263e-02 9.287230e-02 
-3.918312e-03 1.167679e-02 9.030260e-02 
-2.716295e-03 1.039060e-02 8.989330e-02 
-1.856046e-03 4.787199e-03 8.951530e-02 
-1.744219e-02 -4.783417e-04 7.774720e-02 
-5.356213e-03 1.464569e-02 8.384860e-02 
-9.261523e-03 4.566808e-03 8.043170e-02 
-2.682391e-02 -4.941954e-03 6.745920e-02 
-6.048016e-03 2.057957e-02 8.034390e-02 
-3.305344e-03 6.713624e-03 8.178490e-02 
-2.017998e-02 -5.054257e-03 6.938450e-02 
-5.843477e-03 2.186223e-02 7.773900e-02 
-4.762096e-03 2.811940e-03 7.834630e-02 
-1.885533e-02 -1.417141e-02 6.816820e-02 
-2.162194e-03 1.117484e-02 7.831590e-02 
-1.709039e-02 -8.829392e-03 6.771900e-02 
-2.906195e-03 1.701022e-02 7.609260e-02 
-1.052716e-02 -7.891211e-03 7.093500e-02 
-1.437555e-03 1.897815e-02 7.566750e-02 
-1.190489e-02 -9.751250e-03 6.872710e-02 
-9.298107e-04 1.673932e-02 7.482870e-02 
-1.067450e-02 -1.104471e-02 6.832680e-02 
2.791412e-04 1.543948e-02 7.442800e-02 
-1.150932e-02 -1.414772e-02 6.657480e-02 
1.928124e-03 1.181797e-02 7.448870e-02 
-1.442507e-02 -1.909023e-02 6.345240e-02 
4.011510e-03 5.893546e-03 7.500820e-02 
1.729586e-03 -1.212399e-04 7.242260e-02 
-2.828830e-03 2.994263e-02 6.726480e-02 
-6.521342e-04 -7.264054e-03 6.982910e-02 
3.422846e-03 2.064566e-02 7.097500e-02 
-8.305032e-03 -1.672072e-02 6.359330e-02 
8.721006e-03 8.391399e-03 7.421000e-02 
-1.682931e-02 -2.734493e-02 5.678060e-02 
6.641260e-03 -3.156952e-03 7.211390e-02 
-2.192735e-03 2.789096e-02 6.378570e-02 
-3.011297e-03 -1.540939e-02 6.460010e-02 
1.084240e-02 1.029044e-02 7.294260e-02 
-1.754376e-02 -2.933456e-02 5.363790e-02 
9.033029e-03 -5.710777e-03 7.132160e-02 
8.828690e-03 2.304890e-02 6.933500e-02 
-1.103767e-02 -2.147759e-02 5.646270e-02 
1.399402e-02 2.051015e-03 7.307470e-02 
-3.985387e-03 3.547516e-02 5.791840e-02 
-5.045261e-03 -1.922436e-02 5.929160e-02 
1.432227e-02 5.365541e-03 7.176440e-02 
-7.445135e-03 3.993080e-02 5.375250e-02 
2.636913e-03 -1.846959e-02 6.346280e-02 
1.516407e-02 7.462977e-03 7.090380e-02 
-5.945553e-03 4.191757e-02 5.333680e-02 
3.931923e-03 -1.865424e-02 6.306220e-02 
1.643291e-02 7.261191e-03 7.050270e-02 
-4.622871e-03 4.168312e-02 5.293750e-02 
4.612206e-03 -1.871386e-02 6.220660e-02 
1.710459e-02 7.202320e-03 6.965810e-02 
-3.931487e-03 4.162254e-02 5.206810e-02 
-1.848369e-03 -2.179148e-02 5.631810e-02 
1.752197e-02 3.911397e-03 6.883640e-02 
-4.131704e-03 3.840583e-02 5.075000e-02 
-1.032441e-02 -2.455436e-02 4.890720e-02 
1.785428e-02 -4.568421e-04 6.802250e-02 
6.781260e-03 3.109031e-02 5.785070e-02 
-1.390453e-02 -2.946446e-02 4.520690e-02 
1.742176e-02 -6.847626e-03 6.677710e-02 
1.724355e-02 2.179995e-02 6.478440e-02 
-3.019994e-02 -3.446107e-02 3.212620e-02 
1.330649e-02 -1.356324e-02 6.283630e-02 
2.029993e-02 1.343098e-02 6.623380e-02 
-9.517237e-03 5.056252e-02 4.183580e-02 
5.834201e-03 -2.301260e-02 5.657940e-02 
2.071677e-02 2.459436e-03 6.591290e-02 
1.053747e-03 3.637456e-02 4.917230e-02 
-1.336179e-02 -3.276715e-02 4.163590e-02 
1.858858e-02 -1.012903e-02 6.381530e-02 
2.138993e-02 1.777333e-02 6.406540e-02 
-3.313865e-03 5.363037e-02 4.342760e-02 
9.117152e-03 -2.240519e-02 5.624100e-02 
2.155177e-02 3.558254e-03 6.376880e-02 
3.764957e-03 3.702081e-02 4.837540e-02 
-1.141266e-02 -3.412497e-02 4.037330e-02 
1.925396e-02 -1.119683e-02 6.168010e-02 
2.264939e-02 1.657735e-02 6.238250e-02 
-4.545385e-03 5.312758e-02 3.975380e-02 
8.389639e-03 -2.543926e-02 5.316490e-02 
2.264073e-02 2.084776e-04 6.210260e-02 
1.225779e-02 3.160299e-02 5.229650e-02 
-2.430432e-02 -3.973578e-02 2.830580e-02 
1.641964e-02 -1.812963e-02 5.731230e-02 
2.458085e-02 8.624589e-03 6.164730e-02 
6.884734e-03 4.219035e-02 4.621160e-02 
-7.407209e-03 -3.465478e-02 3.919820e-02 
2.127341e-02 -1.137380e-02 5.914060e-02 
2.466593e-02 1.640063e-02 5.984680e-02 
-1.819935e-03 5.276042e-02 3.760940e-02 
2.613577e-03 -2.968699e-02 4.499020e-02 
2.364083e-02 -5.221440e-03 5.915470e-02 
2.110167e-02 2.405512e-02 5.531120e-02 
-3.613888e-02 -4.455508e-02 1.543450e-02 
1.432451e-02 -2.409567e-02 5.204260e-02 
2.549690e-02 2.127747e-03 5.870890e-02 
1.576616e-02 3.338804e-02 4.931540e-02 
-1.622487e-02 -4.088404e-02 2.875270e-02 
1.852568e-02 -1.824222e-02 5.345110e-02 
2.667729e-02 8.532984e-03 5.781840e-02 
1.331798e-02 4.091542e-02 4.559350e-02 
-6.707053e-03 -3.679002e-02 3.425050e-02 
2.320367e-02 -1.364202e-02 5.531360e-02 
2.718475e-02 1.400872e-02 5.648120e-02 
7.051066e-03 4.847722e-02 3.897080e-02 
7.307523e-03 -2.917887e-02 4.294860e-02 
2.641437e-02 -4.378911e-03 5.576610e-02 
2.150598e-02 2.553321e-02 5.005270e-02 
-1.087619e-02 -4.162507e-02 2.858790e-02 
1.995786e-02 -1.829568e-02 5.043570e-02 
2.869224e-02 8.356399e-03 5.528460e-02 
1.780176e-02 4.005197e-02 4.489840e-02 
7.891263e-03 -3.138579e-02 4.076080e-02 
2.700018e-02 -6.520532e-03 5.363420e-02 
2.388420e-02 2.292613e-02 4.929090e-02 
-1.986625e-02 -4.804253e-02 1.931960e-02 
1.710963e-02 -2.530330e-02 4.598990e-02 
2.885516e-02 8.351632e-04 5.319220e-02 
2.217557e-02 3.128229e-02 4.605500e-02 
-1.496775e-03 -3.966756e-02 3.135580e-02 
2.343812e-02 -1.546815e-02 4.878570e-02 
3.037585e-02 1.155788e-02 5.227030e-02 
1.647152e-02 4.419981e-02 3.944830e-02 
1.109446e-02 -3.289902e-02 3.913260e-02 
2.834502e-02 -7.644578e-03 5.064480e-02 
2.583050e-02 2.166172e-02 4.674370e-02 
2.043836e-02 -2.463145e-02 4.435440e-02 
3.037013e-02 1.875477e-03 5.018940e-02 
2.370302e-02 3.235770e-02 4.301250e-02 
2.388475e-03 -4.129657e-02 3.021240e-02 
2.419244e-02 -1.647910e-02 4.531040e-02 
3.113619e-02 1.059380e-02 4.882140e-02 
1.965658e-02 4.257280e-02 3.782470e-02 
1.498333e-02 -3.342309e-02 3.797930e-02 
2.918862e-02 -7.557708e-03 4.718050e-02 
2.786225e-02 2.148368e-02 4.418870e-02 
-3.788234e-03 -4.806238e-02 2.307110e-02 
2.316005e-02 -2.384113e-02 4.225420e-02 
3.130119e-02 3.057264e-03 4.671930e-02 
2.463443e-02 3.359961e-02 3.949170e-02 
1.348046e-02 -3.859181e-02 3.437660e-02 
2.775168e-02 -1.256964e-02 4.366040e-02 
3.232446e-02 1.503393e-02 4.532360e-02 
-9.715795e-03 -5.041488e-02 1.577320e-02 
2.494249e-02 -2.625656e-02 4.103350e-02 
3.189211e-02 9.163975e-04 4.457570e-02 
2.880255e-02 3.048122e-02 4.016040e-02 
1.763508e-02 -3.476107e-02 3.454380e-02 
3.121294e-02 -8.744223e-03 4.333110e-02 
3.107593e-02 2.000625e-02 4.125950e-02 
6.826458e-03 -4.622112e-02 2.550050e-02 
2.884782e-02 -1.696079e-02 4.067050e-02 
3.517518e-02 1.023985e-02 4.374230e-02 
8.213678e-03 6.043387e-02 1.927870e-02 
2.424999e-02 -3.032442e-02 3.660990e-02 
3.240132e-02 -3.315864e-03 4.112770e-02 
3.403159e-02 2.500059e-02 4.045880e-02 
1.700045e-02 -3.779129e-02 3.005150e-02 
3.062847e-02 -1.165178e-02 3.893000e-02 
3.578045e-02 1.581995e-02 4.107700e-02 
9.440732e-03 -4.762075e-02 2.338680e-02 
2.994582e-02 -2.135865e-02 3.767640e-02 
3.685476e-02 5.743730e-03 4.123350e-02 
2.790501e-02 -3.302766e-02 3.548730e-02 
3.542653e-02 -5.926609e-03 3.953500e-02 
3.822161e-02 2.203579e-02 3.980390e-02 
1.697282e-02 -4.094943e-02 2.602080e-02 
3.658643e-02 -1.489023e-02 3.968620e-02 
3.879599e-02 1.318427e-02 3.948680e-02 
1.398849e-02 -4.821986e-02 2.275240e-02 
3.449864e-02 -1.985757e-02 3.699770e-02 
4.078203e-02 7.296903e-03 4.008180e-02 
3.736464e-03 -5.098334e-02 1.340270e-02 
3.298702e-02 -2.497459e-02 3.476750e-02 
4.045149e-02 1.990128e-03 3.880780e-02 
4.208038e-02 3.018244e-02 3.814030e-02 
3.290453e-02 -2.708712e-02 3.345660e-02 
4.153172e-02 -3.622492e-04 3.844620e-02 
4.373628e-02 2.764882e-02 3.824730e-02 
3.290776e-02 -2.811574e-02 3.213620e-02 
4.211853e-02 -1.498460e-03 3.760920e-02 
4.489804e-02 2.635543e-02 3.787870e-02 
3.291072e-02 -2.914587e-02 3.081350e-02 
4.328152e-02 -2.769906e-03 3.724110e-02 
4.491011e-02 2.537638e-02 3.657340e-02 
3.467985e-02 -3.052422e-02 3.092480e-02 
4.386797e-02 -3.905262e-03 3.640480e-02 
4.549693e-02 2.424018e-02 3.573640e-02 
3.594364e-02 -3.069876e-02 3.055100e-02 
4.453906e-02 -3.964068e-03 3.556080e-02 
4.674203e-02 2.402590e-02 3.536210e-02 
3.729081e-02 -2.978830e-02 3.017010e-02 
4.586856e-02 -3.081231e-03 3.517930e-02 
4.635130e-02 2.535620e-02 3.356800e-02 
3.997062e-02 -2.694694e-02 3.072750e-02 
4.679329e-02 8.714576e-05 3.431300e-02 
4.317473e-02 3.631908e-02 2.884990e-02 
4.223005e-02 -2.183772e-02 3.079230e-02 
4.731514e-02 5.548295e-03 3.296010e-02 
3.776670e-02 4.247365e-02 2.265480e-02 
4.497347e-02 -1.794689e-02 3.133850e-02 
4.775286e-02 9.940351e-03 3.161290e-02 
4.573046e-02 -1.692763e-02 3.048570e-02 
4.850931e-02 1.095884e-02 3.076060e-02 
3.913056e-02 4.235414e-02 2.093970e-02 
4.797278e-02 -1.185271e-02 3.055060e-02 
5.017575e-02 1.613726e-02 3.035180e-02 
2.901321e-02 -4.222632e-02 1.589200e-02 
4.898286e-02 -7.605386e-03 2.967600e-02 
5.175511e-02 2.023213e-02 2.995120e-02 
4.451136e-02 -2.850033e-02 2.612400e-02 
5.073240e-02 -1.341204e-03 2.926070e-02 
5.293360e-02 2.662774e-02 2.906210e-02 
4.816456e-02 -2.039773e-02 2.712760e-02 
5.208037e-02 7.205864e-03 2.835630e-02 
4.393726e-02 3.815929e-02 1.949120e-02 
5.082686e-02 -9.934923e-03 2.715940e-02 
5.359769e-02 1.790437e-02 2.743650e-02 
4.529533e-02 -2.952795e-02 2.262490e-02 
5.265967e-02 -2.593241e-03 2.673840e-02 
5.372626e-02 2.568855e-02 2.558590e-02 
5.026592e-02 -1.949630e-02 2.458430e-02 
5.417690e-02 8.105289e-03 2.581860e-02 
4.606267e-02 3.907102e-02 1.691870e-02 
5.284040e-02 -1.011139e-02 2.462750e-02 
5.560954e-02 1.772806e-02 2.490650e-02 
4.798189e-02 -2.873872e-02 2.055400e-02 
5.418930e-02 -1.557889e-03 2.372240e-02 
5.192403e-02 2.877960e-02 1.966240e-02 
5.236728e-02 -1.859486e-02 2.204090e-02 
5.627353e-02 9.004697e-03 2.328100e-02 
4.320328e-02 -3.204891e-02 1.400250e-02 
5.519266e-02 -5.981668e-03 2.206510e-02 
5.748036e-02 2.308485e-02 2.185870e-02 
5.248764e-02 -1.954544e-02 1.939290e-02 
5.753021e-02 7.811408e-03 2.160200e-02 
4.456295e-02 -3.216806e-02 1.229270e-02 
5.596897e-02 -5.966584e-03 1.989560e-02 
5.930149e-02 2.173710e-02 2.065940e-02 
5.570781e-02 -1.787626e-02 1.913510e-02 
5.904075e-02 9.845336e-03 1.990000e-02 
5.165199e-02 -1.910636e-02 1.441770e-02 
5.841442e-02 7.921246e-03 1.810700e-02 
5.535026e-02 -1.762184e-02 1.599150e-02 
5.812596e-02 1.030723e-02 1.627790e-02 
5.678829e-02 -7.962743e-03 1.507600e-02 
5.527471e-02 2.444365e-02 1.142800e-02 
5.546374e-02 -5.252798e-03 1.091880e-02 
-3.410409e-02 -1.318205e-02 1.630067e-01 
-3.426065e-02 -1.642226e-02 1.622033e-01 
-3.266574e-02 1.238285e-02 1.586874e-01 
-3.082741e-02 -7.752567e-04 1.605297e-01 
-3.064543e-02 -1.765406e-02 1.620177e-01 
-3.020551e-02 1.154769e-02 1.577688e-01 
-2.932980e-02 -1.022823e-02 1.604085e-01 
-1.546063e-02 3.598324e-02 1.611649e-01 
-2.880376e-02 -5.850066e-03 1.588172e-01 
-1.399150e-02 3.657102e-02 1.607008e-01 
-2.758377e-02 -6.251751e-03 1.583604e-01 
-1.476319e-02 3.590425e-02 1.591518e-01 
-2.657635e-02 -9.945787e-03 1.582957e-01 
-1.434758e-02 3.241483e-02 1.587185e-01 
-2.467774e-02 -1.509575e-02 1.589735e-01 
-2.159261e-02 -2.289655e-02 1.607558e-01 
-2.223866e-02 6.528063e-03 1.557873e-01 
-1.516401e-04 4.310402e-02 1.627957e-01 
-2.313730e-02 -2.055754e-03 1.553929e-01 
-1.165349e-02 3.496296e-02 1.562274e-01 
-1.845240e-02 -1.839056e-02 1.594485e-01 
-1.677054e-02 1.008473e-02 1.559532e-01 
8.748967e-04 3.948443e-02 1.615524e-01 
-1.998982e-02 -9.894594e-03 1.560111e-01 
4.744446e-03 4.229388e-02 1.621527e-01 
-1.950048e-02 -3.265645e-03 1.540345e-01 
-6.989827e-03 2.073956e-02 1.575261e-01 
-1.843335e-02 3.154954e-03 1.524223e-01 
-8.731483e-03 2.841887e-02 1.540863e-01 
-1.340531e-02 -1.893085e-02 1.576365e-01 
-1.340087e-02 1.018169e-02 1.530280e-01 
9.915744e-03 3.797317e-02 1.622529e-01 
-1.526411e-02 -6.962847e-03 1.534384e-01 
-8.437440e-03 1.944516e-02 1.532453e-01 
-1.541309e-02 -2.467845e-02 1.549518e-01 
-1.428294e-02 3.971869e-03 1.510566e-01 
-6.306221e-03 2.994422e-02 1.516081e-01 
-1.112373e-02 -1.068957e-02 1.540320e-01 
-6.008793e-03 1.633740e-02 1.527325e-01 
-1.280436e-02 -2.219877e-02 1.536653e-01 
-1.165588e-02 6.448713e-03 1.497635e-01 
-5.378080e-03 3.317347e-02 1.491960e-01 
-1.146452e-02 -2.970149e-04 1.497339e-01 
-3.509427e-03 2.562467e-02 1.502862e-01 
-9.094231e-03 -3.425661e-03 1.504190e-01 
-2.282438e-03 2.292452e-02 1.502263e-01 
-6.814544e-03 -2.031576e-03 1.503293e-01 
-1.686383e-03 2.503407e-02 1.490207e-01 
-5.100905e-03 -4.091725e-04 1.498690e-01 
-3.985046e-03 3.702761e-03 1.486510e-01 
-4.109901e-03 -1.846268e-02 1.509473e-01 
-1.785503e-03 9.605906e-03 1.477897e-01 
-5.889278e-04 -9.799932e-03 1.504377e-01 
1.754373e-03 1.829865e-02 1.472795e-01 
-1.537496e-03 2.961124e-03 1.465741e-01 
1.670234e-03 -3.874205e-03 1.484004e-01 
1.126273e-03 9.118977e-04 1.460706e-01 
4.798808e-04 1.252434e-02 1.425526e-01 
-3.805863e-03 6.965366e-03 1.346777e-01 
-1.477509e-03 1.071116e-02 1.329983e-01 
5.838277e-05 1.139202e-02 1.313414e-01 
-5.809420e-03 5.097561e-03 1.249944e-01 
-9.304176e-04 8.925879e-03 1.248801e-01 
-6.297403e-03 4.652692e-03 1.184414e-01 
-1.395227e-03 8.499361e-03 1.183461e-01 
-2.812665e-03 4.824268e-03 1.142612e-01 
6.461196e-04 1.043649e-02 1.129536e-01 
-7.683834e-04 6.758938e-03 1.088434e-01 
-6.541831e-04 9.221989e-03 1.059162e-01 
-7.586778e-03 4.271963e-03 9.968760e-02 
-1.038313e-03 1.201988e-02 1.012990e-01 
-1.320399e-02 4.588748e-03 9.203250e-02 
-3.048182e-03 8.561141e-03 9.669280e-02 
-1.702906e-02 -5.796421e-04 8.646790e-02 
-1.462769e-02 8.771645e-04 8.647160e-02 
-1.309982e-02 1.515500e-03 8.604560e-02 
-1.358149e-02 -5.373529e-04 8.476690e-02 
-1.880051e-02 -3.021355e-03 8.040310e-02 
-8.646867e-04 1.302905e-02 8.816720e-02 
4.361257e-04 7.905561e-03 8.864570e-02 
-7.801536e-03 3.317908e-03 8.262520e-02 
-2.523990e-02 -4.769963e-05 7.016380e-02 
-2.218721e-03 2.218969e-02 8.163160e-02 
-8.347789e-04 1.228203e-02 8.303580e-02 
-4.966000e-03 3.600149e-03 8.049590e-02 
-2.528827e-02 -3.334774e-03 6.665110e-02 
-5.162100e-04 2.060188e-02 7.907660e-02 
5.887966e-04 9.645996e-03 8.049820e-02 
-7.527970e-03 -4.427928e-03 7.622040e-02 
-2.741211e-03 2.420016e-02 7.423060e-02 
-2.842895e-03 -1.577421e-03 7.755560e-02 
-6.289372e-03 3.069486e-02 6.927090e-02 
-1.056844e-03 1.161587e-04 7.713040e-02 
1.305805e-03 1.563043e-03 7.714810e-02 
1.110390e-03 5.761731e-04 7.586180e-02 
-1.686306e-03 3.255723e-02 6.802190e-02 
2.106439e-03 -3.245884e-03 7.592010e-02 
-4.808077e-03 3.052049e-02 6.489430e-02 
-9.202013e-04 -7.741852e-03 7.332950e-02 
3.868478e-03 2.076695e-02 7.133850e-02 
-1.014679e-02 -1.096813e-02 6.620280e-02 
8.075870e-03 1.195243e-02 7.454740e-02 
-1.775090e-02 -1.497560e-02 6.031860e-02 
7.671564e-03 5.214750e-03 7.418770e-02 
-2.453338e-02 -2.060639e-02 5.528630e-02 
6.996316e-03 -2.563816e-03 7.383610e-02 
1.950098e-03 3.032754e-02 6.417400e-02 
-2.260104e-03 -1.385552e-02 6.816430e-02 
1.232034e-02 1.042446e-02 7.377430e-02 
-2.223538e-02 -2.251735e-02 5.448820e-02 
9.175471e-03 -4.442840e-03 7.303450e-02 
2.417953e-03 2.917158e-02 6.199800e-02 
-5.560271e-03 -1.706218e-02 6.375610e-02 
1.424117e-02 5.139930e-03 7.343940e-02 
-1.815141e-03 4.331430e-02 5.500870e-02 
6.624410e-03 -1.482648e-02 7.052690e-02 
1.651700e-02 1.124770e-02 7.254820e-02 
1.091671e-02 -1.068243e-02 7.142040e-02 
1.683217e-02 1.707036e-02 7.033200e-02 
-2.255226e-02 -2.448470e-02 4.910300e-02 
1.292339e-02 -5.617932e-03 7.053620e-02 
4.462706e-03 3.113620e-02 5.760470e-02 
-2.013935e-02 -2.055453e-02 4.867220e-02 
1.632899e-02 1.188600e-05 7.053320e-02 
3.554710e-05 3.935511e-02 5.154640e-02 
2.424037e-03 -1.979039e-02 6.311680e-02 
1.862370e-02 3.778685e-03 7.010210e-02 
-2.734062e-04 4.570964e-02 4.873610e-02 
7.935910e-03 -1.839993e-02 6.540840e-02 
2.008524e-02 6.740795e-03 6.923520e-02 
-2.312197e-04 4.826897e-02 4.689050e-02 
7.171828e-03 -1.917241e-02 6.366300e-02 
1.990561e-02 5.766005e-03 6.795350e-02 
-1.528334e-04 4.837557e-02 4.553530e-02 
6.405408e-03 -1.994721e-02 6.191250e-02 
2.028642e-02 4.545164e-03 6.711650e-02 
8.386552e-04 4.682243e-02 4.514730e-02 
5.636637e-03 -2.072439e-02 6.015650e-02 
2.066714e-02 3.324366e-03 6.627960e-02 
2.736644e-03 4.362065e-02 4.572580e-02 
-6.173483e-03 -2.425190e-02 5.101700e-02 
1.996601e-02 -2.081593e-03 6.547320e-02 
6.144879e-03 3.608833e-02 4.822620e-02 
-1.531391e-02 -2.662250e-02 4.353300e-02 
1.870346e-02 -7.252083e-03 6.421840e-02 
2.574111e-02 1.997182e-02 6.401930e-02 
-2.488369e-02 -3.255945e-02 3.639960e-02 
1.325235e-02 -1.652543e-02 6.074090e-02 
2.368604e-02 9.326462e-03 6.325060e-02 
2.049790e-04 5.138193e-02 3.822440e-02 
2.571205e-03 -2.620963e-02 5.355870e-02 
2.164930e-02 -3.651475e-03 6.294710e-02 
1.195584e-02 3.256198e-02 4.894000e-02 
-1.741030e-02 -3.277174e-02 3.901880e-02 
1.680324e-02 -1.546423e-02 6.038870e-02 
2.553086e-02 1.107127e-02 6.154490e-02 
3.006024e-03 5.399646e-02 3.692860e-02 
3.894615e-03 -2.656429e-02 5.184240e-02 
2.295177e-02 -4.000516e-03 6.125790e-02 
1.502017e-02 3.139282e-02 4.862440e-02 
-2.238687e-02 -3.679794e-02 3.338170e-02 
1.334998e-02 -1.970085e-02 5.599630e-02 
2.603721e-02 5.241544e-03 6.034440e-02 
1.122334e-02 4.418548e-02 4.199320e-02 
-8.489912e-03 -3.230503e-02 4.120270e-02 
2.070009e-02 -1.330430e-02 5.873230e-02 
2.885229e-02 1.343727e-02 5.943860e-02 
5.604360e-03 5.563068e-02 3.427350e-02 
4.442040e-03 -2.771214e-02 4.833980e-02 
2.407766e-02 -5.333493e-03 5.827880e-02 
1.989555e-02 2.712160e-02 4.887140e-02 
-2.463682e-02 -3.820244e-02 2.776200e-02 
1.249184e-02 -2.143084e-02 5.161280e-02 
2.689479e-02 2.868452e-03 5.737220e-02 
1.818881e-02 3.763792e-02 4.418260e-02 
-9.436221e-03 -3.411469e-02 3.667070e-02 
2.099386e-02 -1.546514e-02 5.529810e-02 
2.971200e-02 1.107036e-02 5.646580e-02 
8.853461e-03 5.203047e-02 3.312490e-02 
3.707781e-04 -3.180206e-02 4.201290e-02 
2.467945e-02 -1.109283e-02 5.578130e-02 
2.671445e-02 1.842613e-02 5.145610e-02 
9.754670e-03 5.787650e-02 3.122380e-02 
5.072327e-03 -2.881799e-02 4.349280e-02 
2.585743e-02 -6.843239e-03 5.444930e-02 
2.453169e-02 2.429559e-02 4.732110e-02 
1.174006e-02 -2.546960e-02 4.636180e-02 
2.841908e-02 -2.018486e-03 5.402190e-02 
2.316913e-02 3.102448e-02 4.360640e-02 
1.521261e-02 -2.208607e-02 4.687830e-02 
3.015342e-02 1.995157e-03 5.314610e-02 
2.208905e-02 3.647141e-02 4.034230e-02 
-2.763593e-03 -3.741970e-02 3.522970e-02 
2.174517e-02 -1.647296e-02 4.922520e-02 
3.159561e-02 9.646790e-03 5.133020e-02 
1.721742e-02 4.744900e-02 3.315800e-02 
1.259850e-02 -2.789878e-02 4.333810e-02 
2.872413e-02 -4.160614e-03 5.058330e-02 
2.686725e-02 2.729779e-02 4.293450e-02 
1.533830e-03 -3.886857e-02 3.590910e-02 
2.249351e-02 -1.659428e-02 4.706170e-02 
3.179534e-02 9.794707e-03 4.871470e-02 
2.087206e-02 4.595155e-02 3.336210e-02 
9.665272e-03 -3.246206e-02 3.929280e-02 
2.811858e-02 -9.519442e-03 4.846720e-02 
2.906351e-02 2.059558e-02 4.314410e-02 
1.388587e-02 5.937746e-02 2.405820e-02 
1.570127e-02 -2.653118e-02 4.122460e-02 
3.011631e-02 -2.108311e-03 4.710350e-02 
2.995923e-02 2.862319e-02 4.082130e-02 
2.417177e-02 -1.583745e-02 4.403590e-02 
3.181335e-02 1.132098e-02 4.430260e-02 
1.437301e-02 5.821982e-02 2.180460e-02 
1.841363e-02 -2.392903e-02 3.996210e-02 
3.223815e-02 6.920390e-04 4.538500e-02 
3.154284e-02 3.171979e-02 3.861140e-02 
1.514364e-02 -2.957894e-02 3.725350e-02 
3.126290e-02 -5.784593e-03 4.458320e-02 
3.446015e-02 2.333806e-02 4.110990e-02 
1.525575e-02 -3.188248e-02 3.641090e-02 
3.137365e-02 -8.060273e-03 4.375080e-02 
3.512555e-02 2.079135e-02 4.074340e-02 
1.927638e-02 -2.635514e-02 3.693580e-02 
3.310367e-02 -1.693446e-03 4.239030e-02 
4.371016e-02 2.511826e-02 4.497330e-02 
2.021079e-02 -2.547141e-02 3.607190e-02 
3.458150e-02 -1.058951e-03 4.200140e-02 
4.408957e-02 2.625073e-02 4.365710e-02 
2.316886e-02 -3.121352e-02 3.809440e-02 
3.304370e-02 -4.958888e-03 4.024770e-02 
4.392920e-02 2.293486e-02 4.283480e-02 
1.819865e-02 -3.387381e-02 3.346520e-02 
3.454005e-02 -8.996060e-03 4.082750e-02 
4.376731e-02 2.197079e-02 4.153130e-02 
2.839773e-02 -3.309170e-02 3.968850e-02 
3.407225e-02 -4.018820e-03 3.807120e-02 
-2.945210e-03 -5.185909e-02 1.818520e-02 
3.369470e-02 -2.238905e-02 4.016140e-02 
4.236017e-02 1.348979e-02 3.943300e-02 
3.705572e-02 -1.208520e-02 3.923890e-02 
4.491048e-02 2.065546e-02 3.853280e-02 
3.281225e-02 -2.648743e-02 3.756170e-02 
4.150361e-02 7.301444e-05 3.876940e-02 
3.522998e-03 -5.277797e-02 1.905280e-02 
3.674179e-02 -2.104312e-02 3.807730e-02 
4.377944e-02 6.180788e-03 3.787820e-02 
1.202045e-02 -4.986851e-02 2.358000e-02 
3.793495e-02 -1.912365e-02 3.721670e-02 
4.551417e-02 7.853247e-03 3.748670e-02 
1.241005e-02 -5.111756e-02 2.272370e-02 
3.831019e-02 -1.802368e-02 3.589370e-02 
4.589491e-02 8.972698e-03 3.616480e-02 
1.330266e-02 -4.552087e-02 2.083580e-02 
4.194812e-02 -1.132894e-02 3.593520e-02 
4.844148e-02 1.612752e-02 3.526600e-02 
3.417042e-02 -3.239275e-02 3.289080e-02 
4.395181e-02 -6.272055e-03 3.505240e-02 
5.044658e-02 2.118826e-02 3.438250e-02 
3.673839e-02 -2.985575e-02 3.296760e-02 
4.541448e-02 -3.307736e-03 3.418480e-02 
5.029610e-02 2.493453e-02 3.209510e-02 
3.929878e-02 -2.732643e-02 3.304420e-02 
4.633652e-02 -1.025474e-04 3.284510e-02 
4.797589e-02 2.975680e-02 2.788380e-02 
3.994609e-02 -2.518484e-02 3.171040e-02 
4.752958e-02 1.816943e-03 3.198460e-02 
4.672631e-02 3.409011e-02 2.459720e-02 
4.249702e-02 -2.034624e-02 3.130010e-02 
5.007295e-02 6.631535e-03 3.157450e-02 
3.908348e-02 -3.391732e-02 3.007990e-02 
4.774766e-02 -7.380084e-03 3.130270e-02 
5.316935e-02 2.057155e-02 2.968150e-02 
4.488402e-02 -1.882836e-02 3.006890e-02 
5.245246e-02 8.127969e-03 3.034400e-02 
4.092582e-02 -2.985663e-02 2.788090e-02 
5.013017e-02 -3.546892e-03 2.958410e-02 
4.807827e-02 -1.417627e-02 2.881670e-02 
4.872897e-02 -1.435065e-02 2.797270e-02 
4.985725e-02 2.747009e-02 1.999430e-02 
4.830044e-02 -1.638763e-02 2.666760e-02 
4.860701e-02 2.702818e-02 1.768050e-02 
4.976018e-02 -1.574494e-02 2.629240e-02 
5.171289e-02 2.447592e-02 1.927690e-02 
4.960290e-02 -1.673668e-02 2.497840e-02 
5.182434e-02 2.218638e-02 1.843940e-02 
4.971326e-02 -1.900379e-02 2.414910e-02 
5.754822e-02 8.998221e-03 2.442100e-02 
4.955306e-02 -2.231716e-02 2.332740e-02 
5.818064e-02 4.154018e-03 2.456360e-02 
4.993075e-02 -2.585200e-02 2.298540e-02 
5.855103e-02 6.072851e-04 2.422140e-02 
5.112211e-02 -2.393542e-02 2.212610e-02 
5.973964e-02 2.519558e-03 2.336410e-02 
4.880639e-02 -2.867978e-02 1.987580e-02 
6.009806e-02 -3.345589e-03 2.351570e-02 
4.999729e-02 -2.907394e-02 1.951270e-02 
6.021860e-02 -3.281928e-03 2.219680e-02 
5.307973e-02 -2.214351e-02 1.909680e-02 
6.117114e-02 4.571090e-03 1.986170e-02 
5.642781e-02 -1.417802e-02 1.867380e-02 
4.545242e-02 -3.161321e-02 1.212660e-02 
5.397581e-02 -1.757115e-02 1.458890e-02 
5.058407e-02 -1.719486e-02 1.031530e-02 
5.937190e-02 2.505335e-03 1.176990e-02 
-3.776094e-02 -3.548985e-03 1.623523e-01 
-3.563977e-02 -3.520223e-03 1.622514e-01 
-1.650753e-02 4.150479e-02 1.611713e-01 
-3.769835e-02 1.022321e-02 1.565240e-01 
-3.192120e-02 1.668333e-02 1.567521e-01 
-3.096342e-02 -8.551350e-03 1.623531e-01 
-1.340409e-02 3.598611e-02 1.605523e-01 
-3.022286e-02 -4.019462e-03 1.604011e-01 
-1.045215e-02 3.787582e-02 1.604396e-01 
-2.865491e-02 -3.664079e-03 1.599365e-01 
-8.899899e-03 3.820020e-02 1.599753e-01 
-2.805874e-02 -3.942097e-03 1.591124e-01 
-9.696815e-03 3.636010e-02 1.587988e-01 
-2.814540e-02 -8.703794e-03 1.590539e-01 
-1.137003e-02 3.259681e-02 1.576355e-01 
-2.866781e-02 -1.440823e-02 1.590032e-01 
-2.313879e-02 1.419091e-02 1.547393e-01 
9.537531e-03 4.451996e-02 1.646642e-01 
-2.357927e-02 7.116183e-03 1.550744e-01 
5.037405e-03 4.034232e-02 1.620959e-01 
-2.392509e-02 -1.216005e-03 1.557860e-01 
-5.484139e-03 3.776987e-02 1.558503e-01 
-2.241362e-02 -1.427546e-02 1.587186e-01 
-1.580999e-02 1.352017e-02 1.552132e-01 
1.272003e-02 4.393182e-02 1.629412e-01 
-2.098385e-02 2.066173e-03 1.541079e-01 
-4.292554e-03 3.721415e-02 1.542032e-01 
-1.818704e-02 -1.545180e-02 1.589019e-01 
-1.261820e-02 1.290851e-02 1.546715e-01 
1.260287e-02 4.055408e-02 1.613423e-01 
-1.899820e-02 -2.676975e-03 1.539688e-01 
-7.664652e-03 2.219891e-02 1.537753e-01 
1.730377e-02 4.357848e-02 1.619342e-01 
-1.727100e-02 2.489422e-03 1.523663e-01 
-6.436959e-03 2.775073e-02 1.517998e-01 
-1.504211e-02 -2.193042e-02 1.586713e-01 
-1.309868e-02 8.584101e-03 1.518640e-01 
-3.297426e-03 3.453917e-02 1.505502e-01 
-1.496327e-02 -1.465366e-02 1.556266e-01 
-7.819040e-03 1.270090e-02 1.524848e-01 
1.746489e-02 3.641736e-02 1.602738e-01 
-1.453472e-02 -5.083395e-03 1.521697e-01 
-5.286740e-03 2.108997e-02 1.504885e-01 
-1.062973e-02 4.841240e-03 1.505321e-01 
-2.897474e-03 3.213850e-02 1.477164e-01 
-1.146449e-02 -1.168221e-02 1.531517e-01 
-4.812859e-03 1.602876e-02 1.496224e-01 
-1.235479e-02 -1.953486e-02 1.534921e-01 
-5.723619e-03 8.063875e-03 1.499729e-01 
-1.090340e-02 -1.791517e-02 1.526640e-01 
-3.751042e-03 9.360479e-03 1.495119e-01 
-7.136097e-03 -1.408341e-02 1.525496e-01 
-2.520184e-03 1.485979e-02 1.475356e-01 
-6.157298e-03 -4.867478e-03 1.494611e-01 
-8.546064e-03 -2.030554e-02 1.509693e-01 
-1.465837e-03 8.199771e-03 1.474313e-01 
-3.322723e-03 -3.434507e-04 1.474200e-01 
-2.732114e-03 -6.188865e-04 1.466037e-01 
-1.859889e-03 2.612852e-03 1.450157e-01 
2.346513e-03 7.384754e-03 1.449045e-01 
-5.720271e-03 6.768874e-03 1.367822e-01 
-5.120406e-03 9.200671e-03 1.327398e-01 
-5.758225e-03 7.443135e-03 1.290965e-01 
-2.939322e-04 1.035757e-02 1.289702e-01 
-2.990545e-03 9.957299e-03 1.237363e-01 
-4.068554e-03 7.223332e-03 1.200641e-01 
-4.788031e-03 6.760561e-03 1.159554e-01 
-2.530611e-03 6.887727e-03 1.134405e-01 
-2.724598e-03 6.083332e-03 1.097109e-01 
1.153700e-03 1.137014e-02 1.079900e-01 
-2.917917e-04 6.323876e-03 1.046858e-01 
-1.976829e-04 7.756877e-03 1.017481e-01 
-1.366366e-03 4.931258e-03 9.924880e-02 
-1.503781e-02 4.978617e-03 8.817620e-02 
3.083744e-04 6.722394e-03 9.586060e-02 
-1.300370e-02 1.432210e-03 8.649840e-02 
-6.897924e-03 4.054319e-03 8.821890e-02 
-6.816405e-03 4.110115e-03 8.693330e-02 
-1.750235e-02 2.004708e-03 7.952610e-02 
1.048082e-03 1.205501e-02 8.689300e-02 
-6.035730e-03 3.934084e-03 8.350300e-02 
-2.187863e-02 -1.286257e-04 7.336930e-02 
2.425102e-03 1.783527e-02 8.341090e-02 
-1.241189e-03 3.628272e-03 8.397130e-02 
-1.776926e-02 -3.781791e-03 7.435840e-02 
2.602719e-03 1.796792e-02 8.082830e-02 
-1.521026e-03 2.748181e-03 8.140320e-02 
-2.268540e-02 -7.013394e-03 6.949310e-02 
2.630760e-03 1.172768e-02 8.004290e-02 
-9.545162e-03 -6.044231e-03 7.624370e-02 
3.852031e-03 1.880739e-02 7.737590e-02 
-3.978605e-03 -3.046072e-03 7.757110e-02 
4.096695e-03 2.529416e-02 7.425300e-02 
-2.377027e-03 -2.679257e-03 7.715350e-02 
3.581155e-03 2.709262e-02 7.203950e-02 
-2.484118e-04 -2.650988e-03 7.717900e-02 
4.658928e-03 2.780337e-02 7.117220e-02 
3.672176e-04 -2.938086e-03 7.632790e-02 
4.218771e-03 2.824300e-02 6.940780e-02 
8.007292e-05 -5.207035e-03 7.549230e-02 
4.990641e-03 2.522192e-02 6.946880e-02 
1.300194e-03 -7.153723e-03 7.553570e-02 
6.215487e-03 2.320921e-02 6.952190e-02 
1.013351e-03 -9.419151e-03 7.470140e-02 
9.608158e-03 1.842409e-02 7.182850e-02 
8.033815e-04 -1.300343e-02 7.431840e-02 
9.913270e-03 1.445076e-02 7.189310e-02 
-4.634041e-03 -1.462092e-02 6.992750e-02 
1.080744e-02 8.805712e-03 7.285570e-02 
-2.309614e-02 -1.225121e-02 5.578580e-02 
1.190076e-02 -7.774102e-04 7.516050e-02 
2.083535e-03 3.987946e-02 5.631430e-02 
5.568148e-03 -1.188701e-02 7.308060e-02 
1.415748e-02 1.586055e-02 7.020900e-02 
-2.117673e-02 -1.453270e-02 5.498870e-02 
1.408689e-02 -7.005238e-04 7.390390e-02 
2.728285e-03 4.106680e-02 5.361930e-02 
1.997244e-03 -1.707560e-02 6.964920e-02 
1.680973e-02 6.582773e-03 7.212070e-02 
8.895879e-03 -1.241581e-02 7.142040e-02 
1.800181e-02 1.493673e-02 6.899320e-02 
-2.523218e-02 -2.221595e-02 5.054020e-02 
1.233562e-02 -9.422814e-03 7.143130e-02 
1.629458e-02 2.144672e-02 6.450800e-02 
-2.274264e-02 -1.843634e-02 4.963360e-02 
1.473885e-02 -5.774094e-03 7.055610e-02 
6.555158e-03 3.495654e-02 5.251390e-02 
-1.351087e-02 -2.001364e-02 5.486960e-02 
1.669406e-02 -3.108773e-03 6.968860e-02 
5.813163e-03 4.099097e-02 4.876780e-02 
1.158958e-03 -2.117375e-02 6.362480e-02 
1.909729e-02 5.399468e-04 6.881330e-02 
7.763323e-03 4.515194e-02 4.738450e-02 
3.282193e-03 -2.111740e-02 6.367080e-02 
1.964625e-02 1.576784e-03 6.751510e-02 
8.323088e-03 4.626089e-02 4.602290e-02 
3.897823e-03 -2.140450e-02 6.281970e-02 
2.025770e-02 1.291639e-03 6.666980e-02 
8.956544e-03 4.596546e-02 4.514730e-02 
4.513539e-03 -2.169165e-02 6.196880e-02 
2.086924e-02 1.006452e-03 6.582460e-02 
9.590008e-03 4.567006e-02 4.427170e-02 
1.664154e-03 -2.366413e-02 5.931830e-02 
2.064543e-02 -2.566789e-03 6.545030e-02 
1.043827e-02 4.117090e-02 4.486010e-02 
-2.190745e-03 -2.632381e-02 5.619870e-02 
1.991230e-02 -5.802011e-03 6.462860e-02 
1.128251e-02 3.669276e-02 4.544590e-02 
-1.150975e-02 -2.576719e-02 4.836590e-02 
1.821989e-02 -9.690748e-03 6.336550e-02 
2.583089e-02 1.871009e-02 5.954750e-02 
-1.815683e-02 -2.818728e-02 4.324990e-02 
1.562748e-02 -1.555513e-02 6.211580e-02 
2.729442e-02 1.005239e-02 6.191660e-02 
-3.107105e-02 -2.837776e-02 3.315830e-02 
1.147873e-02 -2.046079e-02 5.950490e-02 
2.622593e-02 3.177316e-03 6.201830e-02 
9.391240e-03 4.933678e-02 3.598190e-02 
3.771418e-03 -2.577684e-02 5.459750e-02 
2.325252e-02 -4.974979e-03 6.123490e-02 
2.011720e-02 3.105149e-02 4.766780e-02 
-1.312525e-02 -2.834393e-02 4.253710e-02 
1.887233e-02 -1.476809e-02 6.001520e-02 
2.952419e-02 1.151247e-02 5.891040e-02 
-2.412031e-02 -3.087773e-02 3.444440e-02 
1.325290e-02 -2.000804e-02 5.649550e-02 
2.800329e-02 3.645800e-03 5.902450e-02 
8.228754e-03 5.754449e-02 2.833790e-02 
7.582186e-03 -2.529580e-02 5.294370e-02 
2.547605e-02 -3.528514e-03 5.823280e-02 
2.394390e-02 3.145032e-02 4.600680e-02 
7.178146e-04 -2.867363e-02 4.794920e-02 
2.288908e-02 -9.388270e-03 5.697930e-02 
2.543771e-02 2.260527e-02 4.848100e-02 
-7.412606e-03 -3.012534e-02 4.144730e-02 
2.125742e-02 -1.459820e-02 5.617170e-02 
3.041019e-02 1.274607e-02 5.368680e-02 
-1.026479e-02 -3.349426e-02 3.917300e-02 
1.956346e-02 -1.849942e-02 5.490030e-02 
3.123914e-02 7.127449e-03 5.470090e-02 
1.268322e-02 6.048206e-02 2.475350e-02 
1.050301e-02 -2.545378e-02 4.952420e-02 
2.786605e-02 -3.350104e-03 5.438800e-02 
2.792491e-02 3.055524e-02 4.349790e-02 
-6.995108e-03 -3.270041e-02 3.838240e-02 
2.117633e-02 -1.677404e-02 5.273360e-02 
3.336211e-02 8.527550e-03 5.299250e-02 
1.443928e-02 6.091685e-02 2.296930e-02 
8.284302e-03 -2.773089e-02 4.597420e-02 
2.723855e-02 -6.542778e-03 5.226100e-02 
3.035928e-02 2.515250e-02 4.416240e-02 
-9.680668e-03 -3.738374e-02 3.523760e-02 
1.810354e-02 -2.098808e-02 4.923300e-02 
3.234166e-02 3.028076e-03 5.133780e-02 
1.315735e-02 5.945448e-02 1.968860e-02 
2.864735e-03 -2.809506e-02 3.955490e-02 
2.610334e-02 -9.409214e-03 4.967000e-02 
3.176145e-02 2.050432e-02 4.388330e-02 
-5.322054e-03 -3.721879e-02 3.541900e-02 
2.074699e-02 -1.990688e-02 4.798170e-02 
3.446463e-02 4.428159e-03 4.962950e-02 
-1.258402e-02 -4.573948e-02 3.171820e-02 
1.271206e-02 -2.753439e-02 4.347680e-02 
2.957877e-02 -5.045595e-03 4.793600e-02 
3.375065e-02 2.599212e-02 4.071670e-02 
3.067619e-04 -3.271060e-02 3.508670e-02 
2.416866e-02 -1.421978e-02 4.577250e-02 
3.438226e-02 1.255049e-02 4.417320e-02 
-8.841738e-03 -4.391246e-02 3.092950e-02 
1.686201e-02 -2.609047e-02 4.315420e-02 
3.365931e-02 -3.663489e-03 4.760570e-02 
-3.561172e-04 -3.599734e-02 3.289730e-02 
2.539818e-02 -1.479318e-02 4.407310e-02 
3.711803e-02 1.093078e-02 4.387300e-02 
-8.881411e-03 -4.885798e-02 2.971060e-02 
1.945158e-02 -2.368839e-02 4.142640e-02 
3.573050e-02 -9.424784e-04 4.542760e-02 
1.975061e-02 5.718614e-02 1.498480e-02 
9.345562e-03 -3.141154e-02 3.543980e-02 
2.888152e-02 -1.041967e-02 4.233520e-02 
3.910588e-02 1.635925e-02 4.072800e-02 
-5.236576e-03 -4.570934e-02 2.843060e-02 
2.396861e-02 -1.995187e-02 4.062420e-02 
3.870385e-02 3.755312e-03 4.323090e-02 
-1.928921e-02 -4.923802e-02 1.819730e-02 
2.277845e-02 -2.420250e-02 3.980400e-02 
3.702050e-02 -1.379388e-04 4.194770e-02 
-2.708420e-02 -4.614354e-02 1.017930e-02 
2.056169e-02 -2.781584e-02 3.804040e-02 
3.683303e-02 -5.041852e-03 4.206450e-02 
2.432826e-02 5.725585e-02 1.244150e-02 
2.109567e-02 -3.692356e-02 4.006780e-02 
3.229494e-02 -1.090804e-02 3.939860e-02 
4.589281e-02 1.607136e-02 4.012160e-02 
1.701540e-02 -4.320678e-02 3.786170e-02 
3.076514e-02 -1.876455e-02 3.954260e-02 
4.443199e-02 5.530341e-03 4.121320e-02 
6.090005e-03 -4.554473e-02 2.941790e-02 
3.108987e-02 -2.396029e-02 4.013080e-02 
4.275680e-02 1.647219e-03 3.993160e-02 
3.136459e-03 -4.629902e-02 2.614110e-02 
3.085817e-02 -2.751741e-02 3.977550e-02 
4.202257e-02 -1.592893e-03 3.910870e-02 
2.463097e-03 -5.092092e-02 2.579670e-02 
2.816367e-02 -3.079641e-02 3.755400e-02 
4.133421e-02 -6.150977e-03 3.876180e-02 
-5.066376e-03 -5.421435e-02 2.005500e-02 
2.443851e-02 -3.346298e-02 3.437560e-02 
3.965670e-02 -1.004291e-02 3.747820e-02 
4.838801e-02 1.767096e-02 3.444910e-02 
3.767348e-02 -1.885455e-02 3.763210e-02 
4.736568e-02 8.087639e-03 3.555280e-02 
3.554610e-02 -2.373728e-02 3.635620e-02 
4.671401e-02 2.190107e-03 3.568690e-02 
6.188268e-03 -4.644133e-02 2.132070e-02 
3.486309e-02 -2.827527e-02 3.601170e-02 
4.503925e-02 -1.698454e-03 3.440000e-02 
-5.424457e-04 -5.397347e-02 1.755520e-02 
3.077876e-02 -3.321196e-02 3.332590e-02 
4.345076e-02 -8.229803e-03 3.407170e-02 
5.122057e-02 2.020151e-02 3.007300e-02 
3.043870e-02 -3.417175e-02 3.201230e-02 
4.361390e-02 -9.500032e-03 3.323350e-02 
5.333880e-02 1.751119e-02 3.113780e-02 
3.155515e-02 -3.477001e-02 3.163930e-02 
4.471795e-02 -1.011556e-02 3.286040e-02 
5.395261e-02 1.722493e-02 3.028930e-02 
3.401700e-02 -3.241035e-02 3.124390e-02 
4.667456e-02 -7.448211e-03 3.199220e-02 
5.348208e-02 2.167815e-02 2.702440e-02 
3.697315e-02 -3.036916e-02 3.132310e-02 
4.814219e-02 -4.446812e-03 3.064990e-02 
5.202470e-02 2.688889e-02 2.276350e-02 
3.987351e-02 -2.703479e-02 3.092120e-02 
5.103631e-02 -1.129449e-03 3.024820e-02 
2.760250e-02 -4.714479e-02 2.738750e-02 
4.227674e-02 -2.338606e-02 3.004590e-02 
5.295602e-02 2.861593e-03 2.889690e-02 
2.855501e-02 -4.385620e-02 2.555630e-02 
4.423194e-02 -2.072076e-02 2.917840e-02 
5.442938e-02 5.873120e-03 2.755110e-02 
2.871895e-02 -4.513225e-02 2.471430e-02 
4.439498e-02 -2.198917e-02 2.834150e-02 
5.459274e-02 4.601870e-03 2.671230e-02 
2.882747e-02 -4.511389e-02 2.338250e-02 
4.500605e-02 -2.227416e-02 2.749690e-02 
5.472037e-02 4.657730e-03 2.538700e-02 
2.644908e-02 -4.486338e-02 2.011470e-02 
4.565960e-02 -2.386178e-02 2.713630e-02 
5.626662e-02 5.016318e-03 2.501160e-02 
2.706662e-02 -4.515136e-02 1.926110e-02 
4.627013e-02 -2.414650e-02 2.629240e-02 
5.742939e-02 1.741489e-03 2.561640e-02 
2.273293e-02 -4.628193e-02 1.499550e-02 
4.504695e-02 -2.706272e-02 2.499370e-02 
5.765939e-02 -2.164930e-03 2.574980e-02 
2.030919e-02 -4.603357e-02 1.166540e-02 
4.520990e-02 -2.833107e-02 2.415670e-02 
5.871687e-02 -1.467524e-03 2.489880e-02 
3.078490e-02 -4.334151e-02 1.716620e-02 
4.944508e-02 -2.205273e-02 2.373760e-02 
5.654156e-02 1.461254e-02 1.622860e-02 
4.320694e-02 -3.319370e-02 2.154450e-02 
5.632364e-02 -8.579920e-03 2.278660e-02 
3.382895e-02 -3.994447e-02 1.542940e-02 
