# .PCD v.6 - Point Cloud Data file format
FIELDS x y z 
SIZE 4 4 4 
TYPE F F F 
COUNT 1 1 1 
WIDTH 1172
HEIGHT 1  
POINTS 1172
DATA ascii
1.844600e-02 4.108200e-02 -6.200000e-02 
1.844600e-02 4.108200e-02 0.000000e+00 
2.209700e-02 4.108200e-02 -6.200000e-02 
2.209700e-02 4.108200e-02 0.000000e+00 
2.574700e-02 4.108200e-02 -6.200000e-02 
2.574700e-02 4.108200e-02 0.000000e+00 
2.939800e-02 4.108200e-02 -6.200000e-02 
2.939800e-02 4.108200e-02 0.000000e+00 
3.304800e-02 4.108200e-02 -6.200000e-02 
3.304800e-02 4.108200e-02 0.000000e+00 
3.669900e-02 4.108200e-02 -6.200000e-02 
3.669900e-02 4.108200e-02 0.000000e+00 
4.034900e-02 4.108200e-02 -6.200000e-02 
4.034900e-02 4.108200e-02 0.000000e+00 
4.400000e-02 4.108200e-02 -6.200000e-02 
4.400000e-02 4.108200e-02 0.000000e+00 
4.765000e-02 4.108200e-02 -6.200000e-02 
4.765000e-02 4.108200e-02 0.000000e+00 
5.130100e-02 4.108200e-02 -6.200000e-02 
5.130100e-02 4.108200e-02 0.000000e+00 
5.495200e-02 4.108200e-02 -6.200000e-02 
5.495200e-02 4.108200e-02 0.000000e+00 
5.860200e-02 4.108200e-02 -6.200000e-02 
5.860200e-02 4.108200e-02 0.000000e+00 
5.956700e-02 4.108200e-02 -6.119000e-02 
6.000000e-02 4.108200e-02 -5.741600e-02 
6.000000e-02 4.108200e-02 -5.364300e-02 
6.000000e-02 4.108200e-02 -4.986900e-02 
6.000000e-02 4.108200e-02 -4.609500e-02 
6.157000e-02 4.108200e-02 -4.232100e-02 
6.225300e-02 4.108200e-02 -4.200000e-02 
6.225300e-02 4.108200e-02 -2.000000e-02 
6.157000e-02 4.108200e-02 -1.967900e-02 
6.000000e-02 4.108200e-02 -1.590500e-02 
6.000000e-02 4.108200e-02 -1.213100e-02 
6.000000e-02 4.108200e-02 -8.357400e-03 
6.000000e-02 4.108200e-02 -4.583600e-03 
5.956700e-02 4.108200e-02 -8.098000e-04 
6.590300e-02 4.108200e-02 -4.200000e-02 
6.590300e-02 4.108200e-02 -2.000000e-02 
6.955400e-02 4.108200e-02 -4.200000e-02 
6.955400e-02 4.108200e-02 -2.000000e-02 
7.320400e-02 4.108200e-02 -4.200000e-02 
7.320400e-02 4.108200e-02 -2.000000e-02 
7.685500e-02 4.108200e-02 -4.200000e-02 
7.685500e-02 4.108200e-02 -2.000000e-02 
8.050500e-02 4.108200e-02 -4.200000e-02 
8.050500e-02 4.108200e-02 -2.000000e-02 
8.415600e-02 4.108200e-02 -4.200000e-02 
8.415600e-02 4.108200e-02 -2.000000e-02 
8.780600e-02 4.108200e-02 -3.996600e-02 
8.780600e-02 4.108200e-02 -2.203400e-02 
8.800000e-02 4.108200e-02 -3.854700e-02 
8.800000e-02 4.108200e-02 -3.477400e-02 
8.800000e-02 4.108200e-02 -3.100000e-02 
8.800000e-02 4.108200e-02 -2.722600e-02 
8.800000e-02 4.108200e-02 -2.345200e-02 
1.936000e-04 4.477800e-02 -6.142200e-02 
1.192100e-09 4.477800e-02 -6.119000e-02 
1.192100e-09 4.477800e-02 -5.741600e-02 
1.192100e-09 4.477800e-02 -5.364300e-02 
1.192100e-09 4.477800e-02 -4.986900e-02 
1.192100e-09 4.477800e-02 -4.609500e-02 
1.192100e-09 4.477800e-02 -4.232100e-02 
1.192100e-09 4.477800e-02 -3.854700e-02 
1.192100e-09 4.477800e-02 -3.477400e-02 
1.192100e-09 4.477800e-02 -3.100000e-02 
1.192100e-09 4.477800e-02 -2.722600e-02 
1.192100e-09 4.477800e-02 -2.345200e-02 
1.192100e-09 4.477800e-02 -1.967900e-02 
1.192100e-09 4.477800e-02 -1.590500e-02 
1.192100e-09 4.477800e-02 -1.213100e-02 
1.192100e-09 4.477800e-02 -8.357400e-03 
1.192100e-09 4.477800e-02 -4.583600e-03 
1.192100e-09 4.477800e-02 -8.098000e-04 
1.936000e-04 4.477800e-02 -5.784200e-04 
3.844100e-03 4.477800e-02 -6.200000e-02 
3.844100e-03 4.477800e-02 0.000000e+00 
7.494700e-03 4.477800e-02 -6.200000e-02 
7.494700e-03 4.477800e-02 0.000000e+00 
1.114500e-02 4.477800e-02 -6.200000e-02 
1.114500e-02 4.477800e-02 0.000000e+00 
1.479600e-02 4.477800e-02 -6.200000e-02 
1.479600e-02 4.477800e-02 0.000000e+00 
1.844600e-02 4.477800e-02 -6.200000e-02 
1.844600e-02 4.477800e-02 0.000000e+00 
2.209700e-02 4.477800e-02 -6.200000e-02 
2.209700e-02 4.477800e-02 0.000000e+00 
2.574700e-02 4.477800e-02 -6.200000e-02 
2.574700e-02 4.477800e-02 0.000000e+00 
2.939800e-02 4.477800e-02 -6.200000e-02 
2.939800e-02 4.477800e-02 0.000000e+00 
3.304800e-02 4.477800e-02 -6.200000e-02 
3.304800e-02 4.477800e-02 0.000000e+00 
3.669900e-02 4.477800e-02 -6.200000e-02 
3.669900e-02 4.477800e-02 0.000000e+00 
4.034900e-02 4.477800e-02 -6.200000e-02 
4.034900e-02 4.477800e-02 0.000000e+00 
4.400000e-02 4.477800e-02 -6.200000e-02 
4.400000e-02 4.477800e-02 0.000000e+00 
4.765000e-02 4.477800e-02 -6.200000e-02 
4.765000e-02 4.477800e-02 0.000000e+00 
5.130100e-02 4.477800e-02 -6.200000e-02 
5.130100e-02 4.477800e-02 0.000000e+00 
5.495200e-02 4.477800e-02 -6.200000e-02 
5.495200e-02 4.477800e-02 0.000000e+00 
5.860200e-02 4.477800e-02 -6.200000e-02 
5.860200e-02 4.477800e-02 0.000000e+00 
5.956700e-02 4.477800e-02 -6.119000e-02 
6.000000e-02 4.477800e-02 -5.741600e-02 
6.000000e-02 4.477800e-02 -5.364300e-02 
6.000000e-02 4.477800e-02 -4.986900e-02 
6.000000e-02 4.477800e-02 -4.609500e-02 
6.157000e-02 4.477800e-02 -4.232100e-02 
6.225300e-02 4.477800e-02 -4.200000e-02 
6.225300e-02 4.477800e-02 -2.000000e-02 
6.157000e-02 4.477800e-02 -1.967900e-02 
6.000000e-02 4.477800e-02 -1.590500e-02 
6.000000e-02 4.477800e-02 -1.213100e-02 
6.000000e-02 4.477800e-02 -8.357400e-03 
6.000000e-02 4.477800e-02 -4.583600e-03 
5.956700e-02 4.477800e-02 -8.098000e-04 
6.590300e-02 4.477800e-02 -4.200000e-02 
6.590300e-02 4.477800e-02 -2.000000e-02 
6.955400e-02 4.477800e-02 -4.200000e-02 
6.955400e-02 4.477800e-02 -2.000000e-02 
7.320400e-02 4.477800e-02 -4.200000e-02 
7.320400e-02 4.477800e-02 -2.000000e-02 
7.685500e-02 4.477800e-02 -4.200000e-02 
7.685500e-02 4.477800e-02 -2.000000e-02 
8.050500e-02 4.477800e-02 -4.200000e-02 
8.050500e-02 4.477800e-02 -2.000000e-02 
8.415600e-02 4.477800e-02 -4.200000e-02 
8.415600e-02 4.477800e-02 -2.000000e-02 
8.780600e-02 4.477800e-02 -3.996600e-02 
8.780600e-02 4.477800e-02 -2.203400e-02 
8.800000e-02 4.477800e-02 -3.854700e-02 
8.800000e-02 4.477800e-02 -3.477400e-02 
8.800000e-02 4.477800e-02 -3.100000e-02 
8.800000e-02 4.477800e-02 -2.722600e-02 
8.800000e-02 4.477800e-02 -2.345200e-02 
1.936000e-04 4.847400e-02 -6.142200e-02 
1.192100e-09 4.847400e-02 -6.119000e-02 
1.192100e-09 4.847400e-02 -5.741600e-02 
1.192100e-09 4.847400e-02 -5.364300e-02 
1.192100e-09 4.847400e-02 -4.986900e-02 
1.192100e-09 4.847400e-02 -4.609500e-02 
1.192100e-09 4.847400e-02 -4.232100e-02 
1.192100e-09 4.847400e-02 -3.854700e-02 
1.192100e-09 4.847400e-02 -3.477400e-02 
1.192100e-09 4.847400e-02 -3.100000e-02 
1.192100e-09 4.847400e-02 -2.722600e-02 
1.192100e-09 4.847400e-02 -2.345200e-02 
1.192100e-09 4.847400e-02 -1.967900e-02 
1.192100e-09 4.847400e-02 -1.590500e-02 
1.192100e-09 4.847400e-02 -1.213100e-02 
1.192100e-09 4.847400e-02 -8.357400e-03 
1.192100e-09 4.847400e-02 -4.583600e-03 
1.192100e-09 4.847400e-02 -8.098000e-04 
1.936000e-04 4.847400e-02 -5.784200e-04 
3.844100e-03 4.847400e-02 -6.200000e-02 
3.844100e-03 4.847400e-02 0.000000e+00 
7.494700e-03 4.847400e-02 -6.200000e-02 
7.494700e-03 4.847400e-02 0.000000e+00 
1.114500e-02 4.847400e-02 -6.200000e-02 
1.114500e-02 4.847400e-02 0.000000e+00 
1.479600e-02 4.847400e-02 -6.200000e-02 
1.479600e-02 4.847400e-02 0.000000e+00 
1.844600e-02 4.847400e-02 -6.200000e-02 
1.844600e-02 4.847400e-02 0.000000e+00 
2.209700e-02 4.847400e-02 -6.200000e-02 
2.209700e-02 4.847400e-02 0.000000e+00 
2.574700e-02 4.847400e-02 -6.200000e-02 
2.574700e-02 4.847400e-02 0.000000e+00 
2.939800e-02 4.847400e-02 -6.200000e-02 
2.939800e-02 4.847400e-02 0.000000e+00 
3.304800e-02 4.847400e-02 -6.200000e-02 
3.304800e-02 4.847400e-02 0.000000e+00 
3.669900e-02 4.847400e-02 -6.200000e-02 
3.669900e-02 4.847400e-02 0.000000e+00 
4.034900e-02 4.847400e-02 -6.200000e-02 
4.034900e-02 4.847400e-02 0.000000e+00 
4.400000e-02 4.847400e-02 -6.200000e-02 
4.400000e-02 4.847400e-02 0.000000e+00 
4.765000e-02 4.847400e-02 -6.200000e-02 
4.765000e-02 4.847400e-02 0.000000e+00 
5.130100e-02 4.847400e-02 -6.200000e-02 
5.130100e-02 4.847400e-02 0.000000e+00 
5.495200e-02 4.847400e-02 -6.200000e-02 
5.495200e-02 4.847400e-02 0.000000e+00 
5.860200e-02 4.847400e-02 -6.200000e-02 
5.860200e-02 4.847400e-02 0.000000e+00 
5.956700e-02 4.847400e-02 -6.119000e-02 
6.000000e-02 4.847400e-02 -5.741600e-02 
6.000000e-02 4.847400e-02 -5.364300e-02 
6.000000e-02 4.847400e-02 -4.986900e-02 
6.000000e-02 4.847400e-02 -4.609500e-02 
6.157000e-02 4.847400e-02 -4.232100e-02 
6.225300e-02 4.847400e-02 -4.200000e-02 
6.225300e-02 4.847400e-02 -2.000000e-02 
6.157000e-02 4.847400e-02 -1.967900e-02 
6.000000e-02 4.847400e-02 -1.590500e-02 
6.000000e-02 4.847400e-02 -1.213100e-02 
6.000000e-02 4.847400e-02 -8.357400e-03 
6.000000e-02 4.847400e-02 -4.583600e-03 
5.956700e-02 4.847400e-02 -8.098000e-04 
6.590300e-02 4.847400e-02 -4.200000e-02 
6.590300e-02 4.847400e-02 -2.000000e-02 
6.955400e-02 4.847400e-02 -4.200000e-02 
6.955400e-02 4.847400e-02 -2.000000e-02 
7.320400e-02 4.847400e-02 -4.200000e-02 
7.320400e-02 4.847400e-02 -2.000000e-02 
7.685500e-02 4.847400e-02 -4.200000e-02 
7.685500e-02 4.847400e-02 -2.000000e-02 
8.050500e-02 4.847400e-02 -4.200000e-02 
8.050500e-02 4.847400e-02 -2.000000e-02 
8.415600e-02 4.847400e-02 -4.200000e-02 
8.415600e-02 4.847400e-02 -2.000000e-02 
8.780600e-02 4.847400e-02 -3.996600e-02 
8.780600e-02 4.847400e-02 -2.203400e-02 
8.800000e-02 4.847400e-02 -3.854700e-02 
8.800000e-02 4.847400e-02 -3.477400e-02 
8.800000e-02 4.847400e-02 -3.100000e-02 
8.800000e-02 4.847400e-02 -2.722600e-02 
8.800000e-02 4.847400e-02 -2.345200e-02 
1.936000e-04 5.217000e-02 -6.142200e-02 
1.192100e-09 5.217000e-02 -6.119000e-02 
1.192100e-09 5.217000e-02 -5.741600e-02 
1.192100e-09 5.217000e-02 -5.364300e-02 
1.192100e-09 5.217000e-02 -4.986900e-02 
1.192100e-09 5.217000e-02 -4.609500e-02 
1.192100e-09 5.217000e-02 -4.232100e-02 
1.192100e-09 5.217000e-02 -3.854700e-02 
1.192100e-09 5.217000e-02 -3.477400e-02 
1.192100e-09 5.217000e-02 -3.100000e-02 
1.192100e-09 5.217000e-02 -2.722600e-02 
1.192100e-09 5.217000e-02 -2.345200e-02 
1.192100e-09 5.217000e-02 -1.967900e-02 
1.192100e-09 5.217000e-02 -1.590500e-02 
1.192100e-09 5.217000e-02 -1.213100e-02 
1.192100e-09 5.217000e-02 -8.357400e-03 
1.192100e-09 5.217000e-02 -4.583600e-03 
1.192100e-09 5.217000e-02 -8.098000e-04 
1.936000e-04 5.217000e-02 -5.784200e-04 
3.844100e-03 5.217000e-02 -6.200000e-02 
3.844100e-03 5.217000e-02 0.000000e+00 
7.494700e-03 5.217000e-02 -6.200000e-02 
7.494700e-03 5.217000e-02 0.000000e+00 
1.114500e-02 5.217000e-02 -6.200000e-02 
1.114500e-02 5.217000e-02 0.000000e+00 
1.479600e-02 5.217000e-02 -6.200000e-02 
1.479600e-02 5.217000e-02 0.000000e+00 
1.844600e-02 5.217000e-02 -6.200000e-02 
1.844600e-02 5.217000e-02 0.000000e+00 
2.209700e-02 5.217000e-02 -6.200000e-02 
2.209700e-02 5.217000e-02 0.000000e+00 
2.574700e-02 5.217000e-02 -6.200000e-02 
2.574700e-02 5.217000e-02 0.000000e+00 
2.939800e-02 5.217000e-02 -6.200000e-02 
2.939800e-02 5.217000e-02 0.000000e+00 
3.304800e-02 5.217000e-02 -6.200000e-02 
3.304800e-02 5.217000e-02 0.000000e+00 
3.669900e-02 5.217000e-02 -6.200000e-02 
3.669900e-02 5.217000e-02 0.000000e+00 
4.034900e-02 5.217000e-02 -6.200000e-02 
4.034900e-02 5.217000e-02 0.000000e+00 
4.400000e-02 5.217000e-02 -6.200000e-02 
4.400000e-02 5.217000e-02 0.000000e+00 
4.765000e-02 5.217000e-02 -6.200000e-02 
4.765000e-02 5.217000e-02 0.000000e+00 
5.130100e-02 5.217000e-02 -6.200000e-02 
5.130100e-02 5.217000e-02 0.000000e+00 
5.495200e-02 5.217000e-02 -6.200000e-02 
5.495200e-02 5.217000e-02 0.000000e+00 
5.860200e-02 5.217000e-02 -6.200000e-02 
5.860200e-02 5.217000e-02 0.000000e+00 
5.956700e-02 5.217000e-02 -6.119000e-02 
6.000000e-02 5.217000e-02 -5.741600e-02 
6.000000e-02 5.217000e-02 -5.364300e-02 
6.000000e-02 5.217000e-02 -4.986900e-02 
6.000000e-02 5.217000e-02 -4.609500e-02 
6.157000e-02 5.217000e-02 -4.232100e-02 
6.225300e-02 5.217000e-02 -4.200000e-02 
6.225300e-02 5.217000e-02 -2.000000e-02 
6.157000e-02 5.217000e-02 -1.967900e-02 
6.000000e-02 5.217000e-02 -1.590500e-02 
6.000000e-02 5.217000e-02 -1.213100e-02 
6.000000e-02 5.217000e-02 -8.357400e-03 
6.000000e-02 5.217000e-02 -4.583600e-03 
5.956700e-02 5.217000e-02 -8.098000e-04 
6.590300e-02 5.217000e-02 -4.200000e-02 
6.590300e-02 5.217000e-02 -2.000000e-02 
6.955400e-02 5.217000e-02 -4.200000e-02 
6.955400e-02 5.217000e-02 -2.000000e-02 
7.320400e-02 5.217000e-02 -4.200000e-02 
7.320400e-02 5.217000e-02 -2.000000e-02 
7.685500e-02 5.217000e-02 -4.200000e-02 
7.685500e-02 5.217000e-02 -2.000000e-02 
8.050500e-02 5.217000e-02 -4.200000e-02 
8.050500e-02 5.217000e-02 -2.000000e-02 
8.415600e-02 5.217000e-02 -4.200000e-02 
8.415600e-02 5.217000e-02 -2.000000e-02 
8.780600e-02 5.217000e-02 -3.996600e-02 
8.780600e-02 5.217000e-02 -2.203400e-02 
8.800000e-02 5.217000e-02 -3.854700e-02 
8.800000e-02 5.217000e-02 -3.477400e-02 
8.800000e-02 5.217000e-02 -3.100000e-02 
8.800000e-02 5.217000e-02 -2.722600e-02 
8.800000e-02 5.217000e-02 -2.345200e-02 
1.936000e-04 5.586700e-02 -6.142200e-02 
1.192100e-09 5.586700e-02 -6.119000e-02 
1.192100e-09 5.586700e-02 -5.741600e-02 
1.192100e-09 5.586700e-02 -5.364300e-02 
1.192100e-09 5.586700e-02 -4.986900e-02 
1.192100e-09 5.586700e-02 -4.609500e-02 
1.192100e-09 5.586700e-02 -4.232100e-02 
1.192100e-09 5.586700e-02 -3.854700e-02 
1.192100e-09 5.586700e-02 -3.477400e-02 
1.192100e-09 5.586700e-02 -3.100000e-02 
1.192100e-09 5.586700e-02 -2.722600e-02 
1.192100e-09 5.586700e-02 -2.345200e-02 
1.192100e-09 5.586700e-02 -1.967900e-02 
1.192100e-09 5.586700e-02 -1.590500e-02 
1.192100e-09 5.586700e-02 -1.213100e-02 
1.192100e-09 5.586700e-02 -8.357400e-03 
1.192100e-09 5.586700e-02 -4.583600e-03 
1.192100e-09 5.586700e-02 -8.098000e-04 
1.936000e-04 5.586700e-02 -5.784200e-04 
3.844100e-03 5.586700e-02 -6.200000e-02 
3.844100e-03 5.586700e-02 0.000000e+00 
7.494700e-03 5.586700e-02 -6.200000e-02 
7.494700e-03 5.586700e-02 0.000000e+00 
1.114500e-02 5.586700e-02 -6.200000e-02 
1.114500e-02 5.586700e-02 0.000000e+00 
1.479600e-02 5.586700e-02 -6.200000e-02 
1.479600e-02 5.586700e-02 0.000000e+00 
1.844600e-02 5.586700e-02 -6.200000e-02 
1.844600e-02 5.586700e-02 0.000000e+00 
2.209700e-02 5.586700e-02 -6.200000e-02 
2.209700e-02 5.586700e-02 0.000000e+00 
2.574700e-02 5.586700e-02 -6.200000e-02 
2.574700e-02 5.586700e-02 0.000000e+00 
2.939800e-02 5.586700e-02 -6.200000e-02 
2.939800e-02 5.586700e-02 0.000000e+00 
3.304800e-02 5.586700e-02 -6.200000e-02 
3.304800e-02 5.586700e-02 0.000000e+00 
3.669900e-02 5.586700e-02 -6.200000e-02 
3.669900e-02 5.586700e-02 0.000000e+00 
4.034900e-02 5.586700e-02 -6.200000e-02 
4.034900e-02 5.586700e-02 0.000000e+00 
4.400000e-02 5.586700e-02 -6.200000e-02 
4.400000e-02 5.586700e-02 0.000000e+00 
4.765000e-02 5.586700e-02 -6.200000e-02 
4.765000e-02 5.586700e-02 0.000000e+00 
5.130100e-02 5.586700e-02 -6.200000e-02 
5.130100e-02 5.586700e-02 0.000000e+00 
5.495200e-02 5.586700e-02 -6.200000e-02 
5.495200e-02 5.586700e-02 0.000000e+00 
5.860200e-02 5.586700e-02 -6.200000e-02 
5.860200e-02 5.586700e-02 0.000000e+00 
5.956700e-02 5.586700e-02 -6.119000e-02 
6.000000e-02 5.586700e-02 -5.741600e-02 
6.000000e-02 5.586700e-02 -5.364300e-02 
6.000000e-02 5.586700e-02 -4.986900e-02 
6.000000e-02 5.586700e-02 -4.609500e-02 
6.157000e-02 5.586700e-02 -4.232100e-02 
6.225300e-02 5.586700e-02 -4.200000e-02 
6.225300e-02 5.586700e-02 -2.000000e-02 
6.157000e-02 5.586700e-02 -1.967900e-02 
6.000000e-02 5.586700e-02 -1.590500e-02 
6.000000e-02 5.586700e-02 -1.213100e-02 
6.000000e-02 5.586700e-02 -8.357400e-03 
6.000000e-02 5.586700e-02 -4.583600e-03 
5.956700e-02 5.586700e-02 -8.098000e-04 
6.590300e-02 5.586700e-02 -4.200000e-02 
6.590300e-02 5.586700e-02 -2.000000e-02 
6.955400e-02 5.586700e-02 -4.200000e-02 
6.955400e-02 5.586700e-02 -2.000000e-02 
7.320400e-02 5.586700e-02 -4.200000e-02 
7.320400e-02 5.586700e-02 -2.000000e-02 
7.685500e-02 5.586700e-02 -4.200000e-02 
7.685500e-02 5.586700e-02 -2.000000e-02 
8.050500e-02 5.586700e-02 -4.200000e-02 
8.050500e-02 5.586700e-02 -2.000000e-02 
8.415600e-02 5.586700e-02 -4.200000e-02 
8.415600e-02 5.586700e-02 -2.000000e-02 
8.780600e-02 5.586700e-02 -3.996600e-02 
8.780600e-02 5.586700e-02 -2.203400e-02 
8.800000e-02 5.586700e-02 -3.854700e-02 
8.800000e-02 5.586700e-02 -3.477400e-02 
8.800000e-02 5.586700e-02 -3.100000e-02 
8.800000e-02 5.586700e-02 -2.722600e-02 
8.800000e-02 5.586700e-02 -2.345200e-02 
1.936000e-04 5.956300e-02 -6.142200e-02 
1.192100e-09 5.956300e-02 -6.119000e-02 
1.192100e-09 5.956300e-02 -5.741600e-02 
1.192100e-09 5.956300e-02 -5.364300e-02 
1.192100e-09 5.956300e-02 -4.986900e-02 
1.192100e-09 5.956300e-02 -4.609500e-02 
1.192100e-09 5.956300e-02 -4.232100e-02 
1.192100e-09 5.956300e-02 -3.854700e-02 
1.192100e-09 5.956300e-02 -3.477400e-02 
1.192100e-09 5.956300e-02 -3.100000e-02 
1.192100e-09 5.956300e-02 -2.722600e-02 
1.192100e-09 5.956300e-02 -2.345200e-02 
1.192100e-09 5.956300e-02 -1.967900e-02 
1.192100e-09 5.956300e-02 -1.590500e-02 
1.192100e-09 5.956300e-02 -1.213100e-02 
1.192100e-09 5.956300e-02 -8.357400e-03 
1.192100e-09 5.956300e-02 -4.583600e-03 
1.192100e-09 5.956300e-02 -8.098000e-04 
1.936000e-04 5.956300e-02 -5.784200e-04 
3.844100e-03 5.956300e-02 -6.200000e-02 
3.844100e-03 5.956300e-02 0.000000e+00 
7.494700e-03 5.956300e-02 -6.200000e-02 
7.494700e-03 5.956300e-02 0.000000e+00 
1.114500e-02 5.956300e-02 -6.200000e-02 
1.114500e-02 5.956300e-02 0.000000e+00 
1.479600e-02 5.956300e-02 -6.200000e-02 
1.479600e-02 5.956300e-02 0.000000e+00 
1.844600e-02 5.956300e-02 -6.200000e-02 
1.844600e-02 5.956300e-02 0.000000e+00 
2.209700e-02 5.956300e-02 -6.200000e-02 
2.209700e-02 5.956300e-02 0.000000e+00 
2.574700e-02 5.956300e-02 -6.200000e-02 
2.574700e-02 5.956300e-02 0.000000e+00 
2.939800e-02 5.956300e-02 -6.200000e-02 
2.939800e-02 5.956300e-02 0.000000e+00 
3.304800e-02 5.956300e-02 -6.200000e-02 
3.304800e-02 5.956300e-02 0.000000e+00 
3.669900e-02 5.956300e-02 -6.200000e-02 
3.669900e-02 5.956300e-02 0.000000e+00 
4.034900e-02 5.956300e-02 -6.200000e-02 
4.034900e-02 5.956300e-02 0.000000e+00 
4.400000e-02 5.956300e-02 -6.200000e-02 
4.400000e-02 5.956300e-02 0.000000e+00 
4.765000e-02 5.956300e-02 -6.200000e-02 
4.765000e-02 5.956300e-02 0.000000e+00 
5.130100e-02 5.956300e-02 -6.200000e-02 
5.130100e-02 5.956300e-02 0.000000e+00 
5.495200e-02 5.956300e-02 -6.200000e-02 
5.495200e-02 5.956300e-02 0.000000e+00 
5.860200e-02 5.956300e-02 -6.200000e-02 
5.860200e-02 5.956300e-02 0.000000e+00 
5.956700e-02 5.956300e-02 -6.119000e-02 
6.000000e-02 5.956300e-02 -5.741600e-02 
6.000000e-02 5.956300e-02 -5.364300e-02 
6.000000e-02 5.956300e-02 -4.986900e-02 
6.000000e-02 5.956300e-02 -4.609500e-02 
6.157000e-02 5.956300e-02 -4.232100e-02 
6.225300e-02 5.956300e-02 -4.200000e-02 
6.225300e-02 5.956300e-02 -2.000000e-02 
6.157000e-02 5.956300e-02 -1.967900e-02 
6.000000e-02 5.956300e-02 -1.590500e-02 
6.000000e-02 5.956300e-02 -1.213100e-02 
6.000000e-02 5.956300e-02 -8.357400e-03 
6.000000e-02 5.956300e-02 -4.583600e-03 
5.956700e-02 5.956300e-02 -8.098000e-04 
6.590300e-02 5.956300e-02 -4.200000e-02 
6.590300e-02 5.956300e-02 -2.000000e-02 
6.955400e-02 5.956300e-02 -4.200000e-02 
6.955400e-02 5.956300e-02 -2.000000e-02 
7.320400e-02 5.956300e-02 -4.200000e-02 
7.320400e-02 5.956300e-02 -2.000000e-02 
7.685500e-02 5.956300e-02 -4.200000e-02 
7.685500e-02 5.956300e-02 -2.000000e-02 
8.050500e-02 5.956300e-02 -4.200000e-02 
8.050500e-02 5.956300e-02 -2.000000e-02 
8.415600e-02 5.956300e-02 -4.200000e-02 
8.415600e-02 5.956300e-02 -2.000000e-02 
8.780600e-02 5.956300e-02 -3.996600e-02 
8.780600e-02 5.956300e-02 -2.203400e-02 
8.800000e-02 5.956300e-02 -3.854700e-02 
8.800000e-02 5.956300e-02 -3.477400e-02 
8.800000e-02 5.956300e-02 -3.100000e-02 
8.800000e-02 5.956300e-02 -2.722600e-02 
8.800000e-02 5.956300e-02 -2.345200e-02 
1.936000e-04 6.325900e-02 -6.142200e-02 
1.192100e-09 6.325900e-02 -6.119000e-02 
1.192100e-09 6.325900e-02 -5.741600e-02 
1.192100e-09 6.325900e-02 -5.364300e-02 
1.192100e-09 6.325900e-02 -4.986900e-02 
1.192100e-09 6.325900e-02 -4.609500e-02 
1.192100e-09 6.325900e-02 -4.232100e-02 
1.192100e-09 6.325900e-02 -3.854700e-02 
1.192100e-09 6.325900e-02 -3.477400e-02 
1.192100e-09 6.325900e-02 -3.100000e-02 
1.192100e-09 6.325900e-02 -2.722600e-02 
1.192100e-09 6.325900e-02 -2.345200e-02 
1.192100e-09 6.325900e-02 -1.967900e-02 
1.192100e-09 6.325900e-02 -1.590500e-02 
1.192100e-09 6.325900e-02 -1.213100e-02 
1.192100e-09 6.325900e-02 -8.357400e-03 
1.192100e-09 6.325900e-02 -4.583600e-03 
1.192100e-09 6.325900e-02 -8.098000e-04 
1.936000e-04 6.325900e-02 -5.784200e-04 
3.844100e-03 6.325900e-02 -6.200000e-02 
3.844100e-03 6.325900e-02 0.000000e+00 
7.494700e-03 6.325900e-02 -6.200000e-02 
7.494700e-03 6.325900e-02 0.000000e+00 
1.114500e-02 6.325900e-02 -6.200000e-02 
1.114500e-02 6.325900e-02 0.000000e+00 
1.479600e-02 6.325900e-02 -6.200000e-02 
1.479600e-02 6.325900e-02 0.000000e+00 
1.844600e-02 6.325900e-02 -6.200000e-02 
1.844600e-02 6.325900e-02 0.000000e+00 
2.209700e-02 6.325900e-02 -6.200000e-02 
2.209700e-02 6.325900e-02 0.000000e+00 
2.574700e-02 6.325900e-02 -6.200000e-02 
2.574700e-02 6.325900e-02 0.000000e+00 
2.939800e-02 6.325900e-02 -6.200000e-02 
2.939800e-02 6.325900e-02 0.000000e+00 
3.304800e-02 6.325900e-02 -6.200000e-02 
3.304800e-02 6.325900e-02 0.000000e+00 
3.669900e-02 6.325900e-02 -6.200000e-02 
3.669900e-02 6.325900e-02 0.000000e+00 
4.034900e-02 6.325900e-02 -6.200000e-02 
4.034900e-02 6.325900e-02 0.000000e+00 
4.400000e-02 6.325900e-02 -6.200000e-02 
4.400000e-02 6.325900e-02 0.000000e+00 
4.765000e-02 6.325900e-02 -6.200000e-02 
4.765000e-02 6.325900e-02 0.000000e+00 
5.130100e-02 6.325900e-02 -6.200000e-02 
5.130100e-02 6.325900e-02 0.000000e+00 
5.495200e-02 6.325900e-02 -6.200000e-02 
5.495200e-02 6.325900e-02 0.000000e+00 
5.860200e-02 6.325900e-02 -6.200000e-02 
5.860200e-02 6.325900e-02 0.000000e+00 
5.956700e-02 6.325900e-02 -6.119000e-02 
6.000000e-02 6.325900e-02 -5.741600e-02 
6.000000e-02 6.325900e-02 -5.364300e-02 
6.000000e-02 6.325900e-02 -4.986900e-02 
6.000000e-02 6.325900e-02 -4.609500e-02 
6.157000e-02 6.325900e-02 -4.232100e-02 
6.225300e-02 6.325900e-02 -4.200000e-02 
6.225300e-02 6.325900e-02 -2.000000e-02 
6.157000e-02 6.325900e-02 -1.967900e-02 
6.000000e-02 6.325900e-02 -1.590500e-02 
6.000000e-02 6.325900e-02 -1.213100e-02 
6.000000e-02 6.325900e-02 -8.357400e-03 
6.000000e-02 6.325900e-02 -4.583600e-03 
5.956700e-02 6.325900e-02 -8.098000e-04 
6.590300e-02 6.325900e-02 -4.200000e-02 
6.590300e-02 6.325900e-02 -2.000000e-02 
6.955400e-02 6.325900e-02 -4.200000e-02 
6.955400e-02 6.325900e-02 -2.000000e-02 
7.320400e-02 6.325900e-02 -4.200000e-02 
7.320400e-02 6.325900e-02 -2.000000e-02 
7.685500e-02 6.325900e-02 -4.200000e-02 
7.685500e-02 6.325900e-02 -2.000000e-02 
8.050500e-02 6.325900e-02 -4.200000e-02 
8.050500e-02 6.325900e-02 -2.000000e-02 
8.415600e-02 6.325900e-02 -4.200000e-02 
8.415600e-02 6.325900e-02 -2.000000e-02 
8.780600e-02 6.325900e-02 -3.996600e-02 
8.780600e-02 6.325900e-02 -2.203400e-02 
8.800000e-02 6.325900e-02 -3.854700e-02 
8.800000e-02 6.325900e-02 -3.477400e-02 
8.800000e-02 6.325900e-02 -3.100000e-02 
8.800000e-02 6.325900e-02 -2.722600e-02 
8.800000e-02 6.325900e-02 -2.345200e-02 
1.936000e-04 6.695600e-02 -6.142200e-02 
1.192100e-09 6.695600e-02 -6.119000e-02 
1.192100e-09 6.695600e-02 -5.741600e-02 
1.192100e-09 6.695600e-02 -5.364300e-02 
1.192100e-09 6.695600e-02 -4.986900e-02 
1.192100e-09 6.695600e-02 -4.609500e-02 
1.192100e-09 6.695600e-02 -4.232100e-02 
1.192100e-09 6.695600e-02 -3.854700e-02 
1.192100e-09 6.695600e-02 -3.477400e-02 
1.192100e-09 6.695600e-02 -3.100000e-02 
1.192100e-09 6.695600e-02 -2.722600e-02 
1.192100e-09 6.695600e-02 -2.345200e-02 
1.192100e-09 6.695600e-02 -1.967900e-02 
1.192100e-09 6.695600e-02 -1.590500e-02 
1.192100e-09 6.695600e-02 -1.213100e-02 
1.192100e-09 6.695600e-02 -8.357400e-03 
1.192100e-09 6.695600e-02 -4.583600e-03 
1.192100e-09 6.695600e-02 -8.098000e-04 
1.936000e-04 6.695600e-02 -5.784200e-04 
3.844100e-03 6.695600e-02 -6.200000e-02 
3.844100e-03 6.695600e-02 0.000000e+00 
7.494700e-03 6.695600e-02 -6.200000e-02 
7.494700e-03 6.695600e-02 0.000000e+00 
1.114500e-02 6.695600e-02 -6.200000e-02 
1.114500e-02 6.695600e-02 0.000000e+00 
1.479600e-02 6.695600e-02 -6.200000e-02 
1.479600e-02 6.695600e-02 0.000000e+00 
1.844600e-02 6.695600e-02 -6.200000e-02 
1.844600e-02 6.695600e-02 0.000000e+00 
2.209700e-02 6.695600e-02 -6.200000e-02 
2.209700e-02 6.695600e-02 0.000000e+00 
2.574700e-02 6.695600e-02 -6.200000e-02 
2.574700e-02 6.695600e-02 0.000000e+00 
2.939800e-02 6.695600e-02 -6.200000e-02 
2.939800e-02 6.695600e-02 0.000000e+00 
3.304800e-02 6.695600e-02 -6.200000e-02 
3.304800e-02 6.695600e-02 0.000000e+00 
3.669900e-02 6.695600e-02 -6.200000e-02 
3.669900e-02 6.695600e-02 0.000000e+00 
4.034900e-02 6.695600e-02 -6.200000e-02 
4.034900e-02 6.695600e-02 0.000000e+00 
4.400000e-02 6.695600e-02 -6.200000e-02 
4.400000e-02 6.695600e-02 0.000000e+00 
4.765000e-02 6.695600e-02 -6.200000e-02 
4.765000e-02 6.695600e-02 0.000000e+00 
5.130100e-02 6.695600e-02 -6.200000e-02 
5.130100e-02 6.695600e-02 0.000000e+00 
5.495200e-02 6.695600e-02 -6.200000e-02 
5.495200e-02 6.695600e-02 0.000000e+00 
5.860200e-02 6.695600e-02 -6.200000e-02 
5.860200e-02 6.695600e-02 0.000000e+00 
5.956700e-02 6.695600e-02 -6.119000e-02 
6.000000e-02 6.695600e-02 -5.741600e-02 
6.000000e-02 6.695600e-02 -5.364300e-02 
6.000000e-02 6.695600e-02 -4.986900e-02 
6.000000e-02 6.695600e-02 -4.609500e-02 
6.157000e-02 6.695600e-02 -4.232100e-02 
6.225300e-02 6.695600e-02 -4.200000e-02 
6.225300e-02 6.695600e-02 -2.000000e-02 
6.157000e-02 6.695600e-02 -1.967900e-02 
6.000000e-02 6.695600e-02 -1.590500e-02 
6.000000e-02 6.695600e-02 -1.213100e-02 
6.000000e-02 6.695600e-02 -8.357400e-03 
6.000000e-02 6.695600e-02 -4.583600e-03 
5.956700e-02 6.695600e-02 -8.098000e-04 
6.590300e-02 6.695600e-02 -4.200000e-02 
6.590300e-02 6.695600e-02 -2.000000e-02 
6.955400e-02 6.695600e-02 -4.200000e-02 
6.955400e-02 6.695600e-02 -2.000000e-02 
7.320400e-02 6.695600e-02 -4.200000e-02 
7.320400e-02 6.695600e-02 -2.000000e-02 
7.685500e-02 6.695600e-02 -4.200000e-02 
7.685500e-02 6.695600e-02 -2.000000e-02 
8.050500e-02 6.695600e-02 -4.200000e-02 
8.050500e-02 6.695600e-02 -2.000000e-02 
8.415600e-02 6.695600e-02 -4.200000e-02 
8.415600e-02 6.695600e-02 -2.000000e-02 
8.780600e-02 6.695600e-02 -3.996600e-02 
8.780600e-02 6.695600e-02 -2.203400e-02 
8.800000e-02 6.695600e-02 -3.854700e-02 
8.800000e-02 6.695600e-02 -3.477400e-02 
8.800000e-02 6.695600e-02 -3.100000e-02 
8.800000e-02 6.695600e-02 -2.722600e-02 
8.800000e-02 6.695600e-02 -2.345200e-02 
1.936000e-04 7.065200e-02 -6.142200e-02 
1.192100e-09 7.065200e-02 -6.119000e-02 
1.192100e-09 7.065200e-02 -5.741600e-02 
1.192100e-09 7.065200e-02 -5.364300e-02 
1.192100e-09 7.065200e-02 -4.986900e-02 
1.192100e-09 7.065200e-02 -4.609500e-02 
1.192100e-09 7.065200e-02 -4.232100e-02 
1.192100e-09 7.065200e-02 -3.854700e-02 
1.192100e-09 7.065200e-02 -3.477400e-02 
1.192100e-09 7.065200e-02 -3.100000e-02 
1.192100e-09 7.065200e-02 -2.722600e-02 
1.192100e-09 7.065200e-02 -2.345200e-02 
1.192100e-09 7.065200e-02 -1.967900e-02 
1.192100e-09 7.065200e-02 -1.590500e-02 
1.192100e-09 7.065200e-02 -1.213100e-02 
1.192100e-09 7.065200e-02 -8.357400e-03 
1.192100e-09 7.065200e-02 -4.583600e-03 
1.192100e-09 7.065200e-02 -8.098000e-04 
1.936000e-04 7.065200e-02 -5.784200e-04 
3.844100e-03 7.065200e-02 -6.200000e-02 
3.844100e-03 7.065200e-02 0.000000e+00 
7.494700e-03 7.065200e-02 -6.200000e-02 
7.494700e-03 7.065200e-02 0.000000e+00 
1.114500e-02 7.065200e-02 -6.200000e-02 
1.114500e-02 7.065200e-02 0.000000e+00 
1.479600e-02 7.065200e-02 -6.200000e-02 
1.479600e-02 7.065200e-02 0.000000e+00 
1.844600e-02 7.065200e-02 -6.200000e-02 
1.844600e-02 7.065200e-02 0.000000e+00 
2.209700e-02 7.065200e-02 -6.200000e-02 
2.209700e-02 7.065200e-02 0.000000e+00 
2.574700e-02 7.065200e-02 -6.200000e-02 
2.574700e-02 7.065200e-02 0.000000e+00 
2.939800e-02 7.065200e-02 -6.200000e-02 
2.939800e-02 7.065200e-02 0.000000e+00 
3.304800e-02 7.065200e-02 -6.200000e-02 
3.304800e-02 7.065200e-02 0.000000e+00 
3.669900e-02 7.065200e-02 -6.200000e-02 
3.669900e-02 7.065200e-02 0.000000e+00 
4.034900e-02 7.065200e-02 -6.200000e-02 
4.034900e-02 7.065200e-02 0.000000e+00 
4.400000e-02 7.065200e-02 -6.200000e-02 
4.400000e-02 7.065200e-02 0.000000e+00 
4.765000e-02 7.065200e-02 -6.200000e-02 
4.765000e-02 7.065200e-02 0.000000e+00 
5.130100e-02 7.065200e-02 -6.200000e-02 
5.130100e-02 7.065200e-02 0.000000e+00 
5.495200e-02 7.065200e-02 -6.200000e-02 
5.495200e-02 7.065200e-02 0.000000e+00 
5.860200e-02 7.065200e-02 -6.200000e-02 
5.860200e-02 7.065200e-02 0.000000e+00 
5.956700e-02 7.065200e-02 -6.119000e-02 
6.000000e-02 7.065200e-02 -5.741600e-02 
6.000000e-02 7.065200e-02 -5.364300e-02 
6.000000e-02 7.065200e-02 -4.986900e-02 
6.000000e-02 7.065200e-02 -4.609500e-02 
6.157000e-02 7.065200e-02 -4.232100e-02 
6.225300e-02 7.065200e-02 -4.200000e-02 
6.225300e-02 7.065200e-02 -2.000000e-02 
6.157000e-02 7.065200e-02 -1.967900e-02 
6.000000e-02 7.065200e-02 -1.590500e-02 
6.000000e-02 7.065200e-02 -1.213100e-02 
6.000000e-02 7.065200e-02 -8.357400e-03 
6.000000e-02 7.065200e-02 -4.583600e-03 
5.956700e-02 7.065200e-02 -8.098000e-04 
6.590300e-02 7.065200e-02 -4.200000e-02 
6.590300e-02 7.065200e-02 -2.000000e-02 
6.955400e-02 7.065200e-02 -4.200000e-02 
6.955400e-02 7.065200e-02 -2.000000e-02 
7.320400e-02 7.065200e-02 -4.200000e-02 
7.320400e-02 7.065200e-02 -2.000000e-02 
7.685500e-02 7.065200e-02 -4.200000e-02 
7.685500e-02 7.065200e-02 -2.000000e-02 
8.050500e-02 7.065200e-02 -4.200000e-02 
8.050500e-02 7.065200e-02 -2.000000e-02 
8.415600e-02 7.065200e-02 -4.200000e-02 
8.415600e-02 7.065200e-02 -2.000000e-02 
8.780600e-02 7.065200e-02 -3.996600e-02 
8.780600e-02 7.065200e-02 -2.203400e-02 
8.800000e-02 7.065200e-02 -3.854700e-02 
8.800000e-02 7.065200e-02 -3.477400e-02 
8.800000e-02 7.065200e-02 -3.100000e-02 
8.800000e-02 7.065200e-02 -2.722600e-02 
8.800000e-02 7.065200e-02 -2.345200e-02 
1.936000e-04 7.434800e-02 -6.142200e-02 
1.192100e-09 7.434800e-02 -6.119000e-02 
1.192100e-09 7.434800e-02 -5.741600e-02 
1.192100e-09 7.434800e-02 -5.364300e-02 
1.192100e-09 7.434800e-02 -4.986900e-02 
1.192100e-09 7.434800e-02 -4.609500e-02 
1.192100e-09 7.434800e-02 -4.232100e-02 
1.192100e-09 7.434800e-02 -3.854700e-02 
1.192100e-09 7.434800e-02 -3.477400e-02 
1.192100e-09 7.434800e-02 -3.100000e-02 
1.192100e-09 7.434800e-02 -2.722600e-02 
1.192100e-09 7.434800e-02 -2.345200e-02 
1.192100e-09 7.434800e-02 -1.967900e-02 
1.192100e-09 7.434800e-02 -1.590500e-02 
1.192100e-09 7.434800e-02 -1.213100e-02 
1.192100e-09 7.434800e-02 -8.357400e-03 
1.192100e-09 7.434800e-02 -4.583600e-03 
1.192100e-09 7.434800e-02 -8.098000e-04 
1.936000e-04 7.434800e-02 -5.784200e-04 
3.844100e-03 7.434800e-02 -6.200000e-02 
3.844100e-03 7.434800e-02 0.000000e+00 
7.494700e-03 7.434800e-02 -6.200000e-02 
7.494700e-03 7.434800e-02 0.000000e+00 
1.114500e-02 7.434800e-02 -6.200000e-02 
1.114500e-02 7.434800e-02 0.000000e+00 
1.479600e-02 7.434800e-02 -6.200000e-02 
1.479600e-02 7.434800e-02 0.000000e+00 
1.844600e-02 7.434800e-02 -6.200000e-02 
1.844600e-02 7.434800e-02 0.000000e+00 
2.209700e-02 7.434800e-02 -6.200000e-02 
2.209700e-02 7.434800e-02 0.000000e+00 
2.574700e-02 7.434800e-02 -6.200000e-02 
2.574700e-02 7.434800e-02 0.000000e+00 
2.939800e-02 7.434800e-02 -6.200000e-02 
2.939800e-02 7.434800e-02 0.000000e+00 
3.304800e-02 7.434800e-02 -6.200000e-02 
3.304800e-02 7.434800e-02 0.000000e+00 
3.669900e-02 7.434800e-02 -6.200000e-02 
3.669900e-02 7.434800e-02 0.000000e+00 
4.034900e-02 7.434800e-02 -6.200000e-02 
4.034900e-02 7.434800e-02 0.000000e+00 
4.400000e-02 7.434800e-02 -6.200000e-02 
4.400000e-02 7.434800e-02 0.000000e+00 
4.765000e-02 7.434800e-02 -6.200000e-02 
4.765000e-02 7.434800e-02 0.000000e+00 
5.130100e-02 7.434800e-02 -6.200000e-02 
5.130100e-02 7.434800e-02 0.000000e+00 
5.495200e-02 7.434800e-02 -6.200000e-02 
5.495200e-02 7.434800e-02 0.000000e+00 
5.860200e-02 7.434800e-02 -6.200000e-02 
5.860200e-02 7.434800e-02 0.000000e+00 
5.956700e-02 7.434800e-02 -6.119000e-02 
6.000000e-02 7.434800e-02 -5.741600e-02 
6.000000e-02 7.434800e-02 -5.364300e-02 
6.000000e-02 7.434800e-02 -4.986900e-02 
6.000000e-02 7.434800e-02 -4.609500e-02 
6.157000e-02 7.434800e-02 -4.232100e-02 
6.225300e-02 7.434800e-02 -4.200000e-02 
6.225300e-02 7.434800e-02 -2.000000e-02 
6.157000e-02 7.434800e-02 -1.967900e-02 
6.000000e-02 7.434800e-02 -1.590500e-02 
6.000000e-02 7.434800e-02 -1.213100e-02 
6.000000e-02 7.434800e-02 -8.357400e-03 
6.000000e-02 7.434800e-02 -4.583600e-03 
5.956700e-02 7.434800e-02 -8.098000e-04 
6.590300e-02 7.434800e-02 -4.200000e-02 
6.590300e-02 7.434800e-02 -2.000000e-02 
6.955400e-02 7.434800e-02 -4.200000e-02 
6.955400e-02 7.434800e-02 -2.000000e-02 
7.320400e-02 7.434800e-02 -4.200000e-02 
7.320400e-02 7.434800e-02 -2.000000e-02 
7.685500e-02 7.434800e-02 -4.200000e-02 
7.685500e-02 7.434800e-02 -2.000000e-02 
8.050500e-02 7.434800e-02 -4.200000e-02 
8.050500e-02 7.434800e-02 -2.000000e-02 
8.415600e-02 7.434800e-02 -4.200000e-02 
8.415600e-02 7.434800e-02 -2.000000e-02 
8.780600e-02 7.434800e-02 -3.996600e-02 
8.780600e-02 7.434800e-02 -2.203400e-02 
8.800000e-02 7.434800e-02 -3.854700e-02 
8.800000e-02 7.434800e-02 -3.477400e-02 
8.800000e-02 7.434800e-02 -3.100000e-02 
8.800000e-02 7.434800e-02 -2.722600e-02 
8.800000e-02 7.434800e-02 -2.345200e-02 
1.936000e-04 7.804400e-02 -6.142200e-02 
1.192100e-09 7.804400e-02 -6.119000e-02 
1.192100e-09 7.804400e-02 -5.741600e-02 
1.192100e-09 7.804400e-02 -5.364300e-02 
1.192100e-09 7.804400e-02 -4.986900e-02 
1.192100e-09 7.804400e-02 -4.609500e-02 
1.192100e-09 7.804400e-02 -4.232100e-02 
1.192100e-09 7.804400e-02 -3.854700e-02 
1.192100e-09 7.804400e-02 -3.477400e-02 
1.192100e-09 7.804400e-02 -3.100000e-02 
1.192100e-09 7.804400e-02 -2.722600e-02 
1.192100e-09 7.804400e-02 -2.345200e-02 
1.192100e-09 7.804400e-02 -1.967900e-02 
1.192100e-09 7.804400e-02 -1.590500e-02 
1.192100e-09 7.804400e-02 -1.213100e-02 
1.192100e-09 7.804400e-02 -8.357400e-03 
1.192100e-09 7.804400e-02 -4.583600e-03 
1.192100e-09 7.804400e-02 -8.098000e-04 
1.936000e-04 7.804400e-02 -5.784200e-04 
3.844100e-03 7.804400e-02 -6.200000e-02 
3.844100e-03 7.804400e-02 0.000000e+00 
7.494700e-03 7.804400e-02 -6.200000e-02 
7.494700e-03 7.804400e-02 0.000000e+00 
1.114500e-02 7.804400e-02 -6.200000e-02 
1.114500e-02 7.804400e-02 0.000000e+00 
1.479600e-02 7.804400e-02 -6.200000e-02 
1.479600e-02 7.804400e-02 0.000000e+00 
1.844600e-02 7.804400e-02 -6.200000e-02 
1.844600e-02 7.804400e-02 0.000000e+00 
2.209700e-02 7.804400e-02 -6.200000e-02 
2.209700e-02 7.804400e-02 0.000000e+00 
2.574700e-02 7.804400e-02 -6.200000e-02 
2.574700e-02 7.804400e-02 0.000000e+00 
2.939800e-02 7.804400e-02 -6.200000e-02 
2.939800e-02 7.804400e-02 0.000000e+00 
3.304800e-02 7.804400e-02 -6.200000e-02 
3.304800e-02 7.804400e-02 0.000000e+00 
3.669900e-02 7.804400e-02 -6.200000e-02 
3.669900e-02 7.804400e-02 0.000000e+00 
4.034900e-02 7.804400e-02 -6.200000e-02 
4.034900e-02 7.804400e-02 0.000000e+00 
4.400000e-02 7.804400e-02 -6.200000e-02 
4.400000e-02 7.804400e-02 0.000000e+00 
4.765000e-02 7.804400e-02 -6.200000e-02 
4.765000e-02 7.804400e-02 0.000000e+00 
5.130100e-02 7.804400e-02 -6.200000e-02 
5.130100e-02 7.804400e-02 0.000000e+00 
5.495200e-02 7.804400e-02 -6.200000e-02 
5.495200e-02 7.804400e-02 0.000000e+00 
5.860200e-02 7.804400e-02 -6.200000e-02 
5.860200e-02 7.804400e-02 0.000000e+00 
5.956700e-02 7.804400e-02 -6.119000e-02 
6.000000e-02 7.804400e-02 -5.741600e-02 
6.000000e-02 7.804400e-02 -5.364300e-02 
6.000000e-02 7.804400e-02 -4.986900e-02 
6.000000e-02 7.804400e-02 -4.609500e-02 
6.157000e-02 7.804400e-02 -4.232100e-02 
6.225300e-02 7.804400e-02 -4.200000e-02 
6.225300e-02 7.804400e-02 -2.000000e-02 
6.157000e-02 7.804400e-02 -1.967900e-02 
6.000000e-02 7.804400e-02 -1.590500e-02 
6.000000e-02 7.804400e-02 -1.213100e-02 
6.000000e-02 7.804400e-02 -8.357400e-03 
6.000000e-02 7.804400e-02 -4.583600e-03 
5.956700e-02 7.804400e-02 -8.098000e-04 
6.590300e-02 7.804400e-02 -4.200000e-02 
6.590300e-02 7.804400e-02 -2.000000e-02 
6.955400e-02 7.804400e-02 -4.200000e-02 
6.955400e-02 7.804400e-02 -2.000000e-02 
7.320400e-02 7.804400e-02 -4.200000e-02 
7.320400e-02 7.804400e-02 -2.000000e-02 
7.685500e-02 7.804400e-02 -4.200000e-02 
7.685500e-02 7.804400e-02 -2.000000e-02 
8.050500e-02 7.804400e-02 -4.200000e-02 
8.050500e-02 7.804400e-02 -2.000000e-02 
8.415600e-02 7.804400e-02 -4.200000e-02 
8.415600e-02 7.804400e-02 -2.000000e-02 
8.780600e-02 7.804400e-02 -3.996600e-02 
8.780600e-02 7.804400e-02 -2.203400e-02 
8.800000e-02 7.804400e-02 -3.854700e-02 
8.800000e-02 7.804400e-02 -3.477400e-02 
8.800000e-02 7.804400e-02 -3.100000e-02 
8.800000e-02 7.804400e-02 -2.722600e-02 
8.800000e-02 7.804400e-02 -2.345200e-02 
1.936000e-04 8.174100e-02 -6.142200e-02 
1.192100e-09 8.174100e-02 -6.119000e-02 
1.192100e-09 8.174100e-02 -5.741600e-02 
1.192100e-09 8.174100e-02 -5.364300e-02 
1.192100e-09 8.174100e-02 -4.986900e-02 
1.192100e-09 8.174100e-02 -4.609500e-02 
1.192100e-09 8.174100e-02 -4.232100e-02 
1.192100e-09 8.174100e-02 -3.854700e-02 
1.192100e-09 8.174100e-02 -3.477400e-02 
1.192100e-09 8.174100e-02 -3.100000e-02 
1.192100e-09 8.174100e-02 -2.722600e-02 
1.192100e-09 8.174100e-02 -2.345200e-02 
1.192100e-09 8.174100e-02 -1.967900e-02 
1.192100e-09 8.174100e-02 -1.590500e-02 
1.192100e-09 8.174100e-02 -1.213100e-02 
1.192100e-09 8.174100e-02 -8.357400e-03 
1.192100e-09 8.174100e-02 -4.583600e-03 
1.192100e-09 8.174100e-02 -8.098000e-04 
1.936000e-04 8.174100e-02 -5.784200e-04 
3.844100e-03 8.174100e-02 -6.200000e-02 
3.844100e-03 8.174100e-02 0.000000e+00 
7.494700e-03 8.174100e-02 -6.200000e-02 
7.494700e-03 8.174100e-02 0.000000e+00 
1.114500e-02 8.174100e-02 -6.200000e-02 
1.114500e-02 8.174100e-02 0.000000e+00 
1.479600e-02 8.174100e-02 -6.200000e-02 
1.479600e-02 8.174100e-02 0.000000e+00 
1.844600e-02 8.174100e-02 -6.200000e-02 
1.844600e-02 8.174100e-02 0.000000e+00 
2.209700e-02 8.174100e-02 -6.200000e-02 
2.209700e-02 8.174100e-02 0.000000e+00 
2.574700e-02 8.174100e-02 -6.200000e-02 
2.574700e-02 8.174100e-02 0.000000e+00 
2.939800e-02 8.174100e-02 -6.200000e-02 
2.939800e-02 8.174100e-02 0.000000e+00 
3.304800e-02 8.174100e-02 -6.200000e-02 
3.304800e-02 8.174100e-02 0.000000e+00 
3.669900e-02 8.174100e-02 -6.200000e-02 
3.669900e-02 8.174100e-02 0.000000e+00 
4.034900e-02 8.174100e-02 -6.200000e-02 
4.034900e-02 8.174100e-02 0.000000e+00 
4.400000e-02 8.174100e-02 -6.200000e-02 
4.400000e-02 8.174100e-02 0.000000e+00 
4.765000e-02 8.174100e-02 -6.200000e-02 
4.765000e-02 8.174100e-02 0.000000e+00 
5.130100e-02 8.174100e-02 -6.200000e-02 
5.130100e-02 8.174100e-02 0.000000e+00 
5.495200e-02 8.174100e-02 -6.200000e-02 
5.495200e-02 8.174100e-02 0.000000e+00 
5.860200e-02 8.174100e-02 -6.200000e-02 
5.860200e-02 8.174100e-02 0.000000e+00 
5.956700e-02 8.174100e-02 -6.119000e-02 
6.000000e-02 8.174100e-02 -5.741600e-02 
6.000000e-02 8.174100e-02 -5.364300e-02 
6.000000e-02 8.174100e-02 -4.986900e-02 
6.000000e-02 8.174100e-02 -4.609500e-02 
6.157000e-02 8.174100e-02 -4.232100e-02 
6.225300e-02 8.174100e-02 -4.200000e-02 
6.225300e-02 8.174100e-02 -2.000000e-02 
6.157000e-02 8.174100e-02 -1.967900e-02 
6.000000e-02 8.174100e-02 -1.590500e-02 
6.000000e-02 8.174100e-02 -1.213100e-02 
6.000000e-02 8.174100e-02 -8.357400e-03 
6.000000e-02 8.174100e-02 -4.583600e-03 
5.956700e-02 8.174100e-02 -8.098000e-04 
6.590300e-02 8.174100e-02 -4.200000e-02 
6.590300e-02 8.174100e-02 -2.000000e-02 
6.955400e-02 8.174100e-02 -4.200000e-02 
6.955400e-02 8.174100e-02 -2.000000e-02 
7.320400e-02 8.174100e-02 -4.200000e-02 
7.320400e-02 8.174100e-02 -2.000000e-02 
7.685500e-02 8.174100e-02 -4.200000e-02 
7.685500e-02 8.174100e-02 -2.000000e-02 
8.050500e-02 8.174100e-02 -4.200000e-02 
8.050500e-02 8.174100e-02 -2.000000e-02 
8.415600e-02 8.174100e-02 -4.200000e-02 
8.415600e-02 8.174100e-02 -2.000000e-02 
8.780600e-02 8.174100e-02 -3.996600e-02 
8.780600e-02 8.174100e-02 -2.203400e-02 
8.800000e-02 8.174100e-02 -3.854700e-02 
8.800000e-02 8.174100e-02 -3.477400e-02 
8.800000e-02 8.174100e-02 -3.100000e-02 
8.800000e-02 8.174100e-02 -2.722600e-02 
8.800000e-02 8.174100e-02 -2.345200e-02 
1.936000e-04 8.543700e-02 -6.142200e-02 
1.192100e-09 8.543700e-02 -6.119000e-02 
1.192100e-09 8.543700e-02 -5.741600e-02 
1.192100e-09 8.543700e-02 -5.364300e-02 
1.192100e-09 8.543700e-02 -4.986900e-02 
1.192100e-09 8.543700e-02 -4.609500e-02 
1.192100e-09 8.543700e-02 -4.232100e-02 
1.192100e-09 8.543700e-02 -3.854700e-02 
1.192100e-09 8.543700e-02 -3.477400e-02 
1.192100e-09 8.543700e-02 -3.100000e-02 
1.192100e-09 8.543700e-02 -2.722600e-02 
1.192100e-09 8.543700e-02 -2.345200e-02 
1.192100e-09 8.543700e-02 -1.967900e-02 
1.192100e-09 8.543700e-02 -1.590500e-02 
1.192100e-09 8.543700e-02 -1.213100e-02 
1.192100e-09 8.543700e-02 -8.357400e-03 
1.192100e-09 8.543700e-02 -4.583600e-03 
1.192100e-09 8.543700e-02 -8.098000e-04 
1.936000e-04 8.543700e-02 -5.784200e-04 
3.844100e-03 8.543700e-02 -6.200000e-02 
3.844100e-03 8.543700e-02 0.000000e+00 
7.494700e-03 8.543700e-02 -6.200000e-02 
7.494700e-03 8.543700e-02 0.000000e+00 
1.114500e-02 8.543700e-02 -6.200000e-02 
1.114500e-02 8.543700e-02 0.000000e+00 
1.479600e-02 8.543700e-02 -6.200000e-02 
1.479600e-02 8.543700e-02 0.000000e+00 
1.844600e-02 8.543700e-02 -6.200000e-02 
1.844600e-02 8.543700e-02 0.000000e+00 
2.209700e-02 8.543700e-02 -6.200000e-02 
2.209700e-02 8.543700e-02 0.000000e+00 
2.574700e-02 8.543700e-02 -6.200000e-02 
2.574700e-02 8.543700e-02 0.000000e+00 
2.939800e-02 8.543700e-02 -6.200000e-02 
2.939800e-02 8.543700e-02 0.000000e+00 
3.304800e-02 8.543700e-02 -6.200000e-02 
3.304800e-02 8.543700e-02 0.000000e+00 
3.669900e-02 8.543700e-02 -6.200000e-02 
3.669900e-02 8.543700e-02 0.000000e+00 
4.034900e-02 8.543700e-02 -6.200000e-02 
4.034900e-02 8.543700e-02 0.000000e+00 
4.400000e-02 8.543700e-02 -6.200000e-02 
4.400000e-02 8.543700e-02 0.000000e+00 
4.765000e-02 8.543700e-02 -6.200000e-02 
4.765000e-02 8.543700e-02 0.000000e+00 
5.130100e-02 8.543700e-02 -6.200000e-02 
5.130100e-02 8.543700e-02 0.000000e+00 
5.495200e-02 8.543700e-02 -6.200000e-02 
5.495200e-02 8.543700e-02 0.000000e+00 
5.860200e-02 8.543700e-02 -6.200000e-02 
5.860200e-02 8.543700e-02 0.000000e+00 
5.956700e-02 8.543700e-02 -6.119000e-02 
6.000000e-02 8.543700e-02 -5.741600e-02 
6.000000e-02 8.543700e-02 -5.364300e-02 
6.000000e-02 8.543700e-02 -4.986900e-02 
6.000000e-02 8.543700e-02 -4.609500e-02 
6.157000e-02 8.543700e-02 -4.232100e-02 
6.225300e-02 8.543700e-02 -4.200000e-02 
6.225300e-02 8.543700e-02 -2.000000e-02 
6.157000e-02 8.543700e-02 -1.967900e-02 
6.000000e-02 8.543700e-02 -1.590500e-02 
6.000000e-02 8.543700e-02 -1.213100e-02 
6.000000e-02 8.543700e-02 -8.357400e-03 
6.000000e-02 8.543700e-02 -4.583600e-03 
5.956700e-02 8.543700e-02 -8.098000e-04 
6.590300e-02 8.543700e-02 -4.200000e-02 
6.590300e-02 8.543700e-02 -2.000000e-02 
6.955400e-02 8.543700e-02 -4.200000e-02 
6.955400e-02 8.543700e-02 -2.000000e-02 
7.320400e-02 8.543700e-02 -4.200000e-02 
7.320400e-02 8.543700e-02 -2.000000e-02 
7.685500e-02 8.543700e-02 -4.200000e-02 
7.685500e-02 8.543700e-02 -2.000000e-02 
8.050500e-02 8.543700e-02 -4.200000e-02 
8.050500e-02 8.543700e-02 -2.000000e-02 
8.415600e-02 8.543700e-02 -4.200000e-02 
8.415600e-02 8.543700e-02 -2.000000e-02 
8.780600e-02 8.543700e-02 -3.996600e-02 
8.780600e-02 8.543700e-02 -2.203400e-02 
8.800000e-02 8.543700e-02 -3.854700e-02 
8.800000e-02 8.543700e-02 -3.477400e-02 
8.800000e-02 8.543700e-02 -3.100000e-02 
8.800000e-02 8.543700e-02 -2.722600e-02 
8.800000e-02 8.543700e-02 -2.345200e-02 
1.936000e-04 8.913300e-02 -6.142200e-02 
1.192100e-09 8.913300e-02 -6.119000e-02 
1.192100e-09 8.913300e-02 -5.741600e-02 
1.192100e-09 8.913300e-02 -5.364300e-02 
1.192100e-09 8.913300e-02 -4.986900e-02 
1.192100e-09 8.913300e-02 -4.609500e-02 
1.192100e-09 8.913300e-02 -4.232100e-02 
1.192100e-09 8.913300e-02 -3.854700e-02 
1.192100e-09 8.913300e-02 -3.477400e-02 
1.192100e-09 8.913300e-02 -3.100000e-02 
1.192100e-09 8.913300e-02 -2.722600e-02 
1.192100e-09 8.913300e-02 -2.345200e-02 
1.192100e-09 8.913300e-02 -1.967900e-02 
1.192100e-09 8.913300e-02 -1.590500e-02 
1.192100e-09 8.913300e-02 -1.213100e-02 
1.192100e-09 8.913300e-02 -8.357400e-03 
1.192100e-09 8.913300e-02 -4.583600e-03 
1.192100e-09 8.913300e-02 -8.098000e-04 
1.936000e-04 8.913300e-02 -5.784200e-04 
3.844100e-03 8.913300e-02 -6.200000e-02 
3.844100e-03 8.913300e-02 0.000000e+00 
7.494700e-03 8.913300e-02 -6.200000e-02 
7.494700e-03 8.913300e-02 0.000000e+00 
1.114500e-02 8.913300e-02 -6.200000e-02 
1.114500e-02 8.913300e-02 0.000000e+00 
1.479600e-02 8.913300e-02 -6.200000e-02 
1.479600e-02 8.913300e-02 0.000000e+00 
1.844600e-02 8.913300e-02 -6.200000e-02 
1.844600e-02 8.913300e-02 0.000000e+00 
2.209700e-02 8.913300e-02 -6.200000e-02 
2.209700e-02 8.913300e-02 0.000000e+00 
2.574700e-02 8.913300e-02 -6.200000e-02 
2.574700e-02 8.913300e-02 0.000000e+00 
2.939800e-02 8.913300e-02 -6.200000e-02 
2.939800e-02 8.913300e-02 0.000000e+00 
3.304800e-02 8.913300e-02 -6.200000e-02 
3.304800e-02 8.913300e-02 0.000000e+00 
3.669900e-02 8.913300e-02 -6.200000e-02 
3.669900e-02 8.913300e-02 0.000000e+00 
4.034900e-02 8.913300e-02 -6.200000e-02 
4.034900e-02 8.913300e-02 0.000000e+00 
4.400000e-02 8.913300e-02 -6.200000e-02 
4.400000e-02 8.913300e-02 0.000000e+00 
4.765000e-02 8.913300e-02 -6.200000e-02 
4.765000e-02 8.913300e-02 0.000000e+00 
5.130100e-02 8.913300e-02 -6.200000e-02 
5.130100e-02 8.913300e-02 0.000000e+00 
5.495200e-02 8.913300e-02 -6.200000e-02 
5.495200e-02 8.913300e-02 0.000000e+00 
5.860200e-02 8.913300e-02 -6.200000e-02 
5.860200e-02 8.913300e-02 0.000000e+00 
5.956700e-02 8.913300e-02 -6.119000e-02 
6.000000e-02 8.913300e-02 -5.741600e-02 
6.000000e-02 8.913300e-02 -5.364300e-02 
6.000000e-02 8.913300e-02 -4.986900e-02 
6.000000e-02 8.913300e-02 -4.609500e-02 
6.157000e-02 8.913300e-02 -4.232100e-02 
6.225300e-02 8.913300e-02 -4.200000e-02 
6.225300e-02 8.913300e-02 -2.000000e-02 
6.157000e-02 8.913300e-02 -1.967900e-02 
6.000000e-02 8.913300e-02 -1.590500e-02 
6.000000e-02 8.913300e-02 -1.213100e-02 
6.000000e-02 8.913300e-02 -8.357400e-03 
6.000000e-02 8.913300e-02 -4.583600e-03 
5.956700e-02 8.913300e-02 -8.098000e-04 
6.590300e-02 8.913300e-02 -4.200000e-02 
6.590300e-02 8.913300e-02 -2.000000e-02 
6.955400e-02 8.913300e-02 -4.200000e-02 
6.955400e-02 8.913300e-02 -2.000000e-02 
7.320400e-02 8.913300e-02 -4.200000e-02 
7.320400e-02 8.913300e-02 -2.000000e-02 
7.685500e-02 8.913300e-02 -4.200000e-02 
7.685500e-02 8.913300e-02 -2.000000e-02 
8.050500e-02 8.913300e-02 -4.200000e-02 
8.050500e-02 8.913300e-02 -2.000000e-02 
8.415600e-02 8.913300e-02 -4.200000e-02 
8.415600e-02 8.913300e-02 -2.000000e-02 
8.780600e-02 8.913300e-02 -3.996600e-02 
8.780600e-02 8.913300e-02 -2.203400e-02 
8.800000e-02 8.913300e-02 -3.854700e-02 
8.800000e-02 8.913300e-02 -3.477400e-02 
8.800000e-02 8.913300e-02 -3.100000e-02 
8.800000e-02 8.913300e-02 -2.722600e-02 
8.800000e-02 8.913300e-02 -2.345200e-02 
1.936000e-04 9.283000e-02 -6.142200e-02 
1.192100e-09 9.283000e-02 -6.119000e-02 
1.192100e-09 9.283000e-02 -5.741600e-02 
1.192100e-09 9.283000e-02 -5.364300e-02 
1.192100e-09 9.283000e-02 -4.986900e-02 
1.192100e-09 9.283000e-02 -4.609500e-02 
1.192100e-09 9.283000e-02 -4.232100e-02 
1.192100e-09 9.283000e-02 -3.854700e-02 
1.192100e-09 9.283000e-02 -3.477400e-02 
1.192100e-09 9.283000e-02 -3.100000e-02 
1.192100e-09 9.283000e-02 -2.722600e-02 
1.192100e-09 9.283000e-02 -2.345200e-02 
1.192100e-09 9.283000e-02 -1.967900e-02 
1.192100e-09 9.283000e-02 -1.590500e-02 
1.192100e-09 9.283000e-02 -1.213100e-02 
1.192100e-09 9.283000e-02 -8.357400e-03 
1.192100e-09 9.283000e-02 -4.583600e-03 
1.192100e-09 9.283000e-02 -8.098000e-04 
1.936000e-04 9.283000e-02 -5.784200e-04 
3.844100e-03 9.283000e-02 -6.200000e-02 
3.844100e-03 9.283000e-02 0.000000e+00 
7.494700e-03 9.283000e-02 -6.200000e-02 
7.494700e-03 9.283000e-02 0.000000e+00 
