# .PCD v.6 - Point Cloud Data file format
FIELDS x y z 
SIZE 4 4 4 
TYPE F F F 
COUNT 1 1 1 
WIDTH 1143
HEIGHT 1 
POINTS 1143
DATA ascii
-3.648600e-03 -2.918900e-02 4.500000e-02 
0.000000e+00 -2.918900e-02 -4.500000e-02 
0.000000e+00 -2.918900e-02 4.500000e-02 
3.648600e-03 -2.918900e-02 -4.500000e-02 
3.648600e-03 -2.918900e-02 4.500000e-02 
7.297200e-03 -2.918900e-02 -4.500000e-02 
7.297200e-03 -2.918900e-02 4.500000e-02 
1.094600e-02 -2.918900e-02 -4.500000e-02 
1.094600e-02 -2.918900e-02 4.500000e-02 
1.459400e-02 -2.918900e-02 -4.500000e-02 
1.459400e-02 -2.918900e-02 4.500000e-02 
1.824300e-02 -2.918900e-02 -4.500000e-02 
1.824300e-02 -2.918900e-02 4.500000e-02 
2.189200e-02 -2.918900e-02 -4.500000e-02 
2.189200e-02 -2.918900e-02 4.500000e-02 
2.554000e-02 -2.918900e-02 -4.500000e-02 
2.554000e-02 -2.918900e-02 4.500000e-02 
2.918900e-02 -2.918900e-02 -4.500000e-02 
2.918900e-02 -2.918900e-02 4.500000e-02 
3.283700e-02 -2.918900e-02 -4.500000e-02 
3.283700e-02 -2.918900e-02 4.500000e-02 
3.648600e-02 -2.918900e-02 -4.500000e-02 
3.648600e-02 -2.918900e-02 4.500000e-02 
4.013500e-02 -2.918900e-02 -4.500000e-02 
4.013500e-02 -2.918900e-02 4.500000e-02 
4.022200e-02 -2.918900e-02 -4.498000e-02 
4.290900e-02 -2.918900e-02 -4.138200e-02 
4.290900e-02 -2.918900e-02 -3.778300e-02 
4.290900e-02 -2.918900e-02 -3.418500e-02 
4.290900e-02 -2.918900e-02 -3.058600e-02 
4.290900e-02 -2.918900e-02 -2.698800e-02 
4.290900e-02 -2.918900e-02 -2.339000e-02 
4.290900e-02 -2.918900e-02 -1.979100e-02 
4.290900e-02 -2.918900e-02 -1.619300e-02 
4.290900e-02 -2.918900e-02 -1.259400e-02 
4.290900e-02 -2.918900e-02 -8.996000e-03 
4.290900e-02 -2.918900e-02 -5.397600e-03 
4.290900e-02 -2.918900e-02 -1.799200e-03 
4.290900e-02 -2.918900e-02 1.799200e-03 
4.290900e-02 -2.918900e-02 5.397600e-03 
4.290900e-02 -2.918900e-02 8.996000e-03 
4.290900e-02 -2.918900e-02 1.259400e-02 
4.290900e-02 -2.918900e-02 1.619300e-02 
4.290900e-02 -2.918900e-02 1.979100e-02 
4.290900e-02 -2.918900e-02 2.339000e-02 
4.290900e-02 -2.918900e-02 2.698800e-02 
4.290900e-02 -2.918900e-02 3.058700e-02 
4.290900e-02 -2.918900e-02 3.418500e-02 
4.290900e-02 -2.918900e-02 3.778300e-02 
4.290900e-02 -2.918900e-02 4.138200e-02 
4.022200e-02 -2.918900e-02 4.498000e-02 
-4.378300e-02 -2.554000e-02 -4.500000e-02 
-4.378300e-02 -2.562800e-02 -4.498000e-02 
-4.380900e-02 -2.554000e-02 -4.498000e-02 
-4.378300e-02 -2.707700e-02 -4.138200e-02 
-4.442000e-02 -2.554000e-02 -4.138200e-02 
-4.378300e-02 -2.707700e-02 -3.778300e-02 
-4.442000e-02 -2.554000e-02 -3.778300e-02 
-4.378300e-02 -2.707700e-02 -3.418500e-02 
-4.442000e-02 -2.554000e-02 -3.418500e-02 
-4.378300e-02 -2.707700e-02 -3.058600e-02 
-4.442000e-02 -2.554000e-02 -3.058600e-02 
-4.378300e-02 -2.707700e-02 -2.698800e-02 
-4.442000e-02 -2.554000e-02 -2.698800e-02 
-4.378300e-02 -2.707700e-02 -2.339000e-02 
-4.442000e-02 -2.554000e-02 -2.339000e-02 
-4.378300e-02 -2.707700e-02 -1.979100e-02 
-4.442000e-02 -2.554000e-02 -1.979100e-02 
-4.378300e-02 -2.707700e-02 -1.619300e-02 
-4.442000e-02 -2.554000e-02 -1.619300e-02 
-4.378300e-02 -2.707700e-02 -1.259400e-02 
-4.442000e-02 -2.554000e-02 -1.259400e-02 
-4.378300e-02 -2.707700e-02 -8.996000e-03 
-4.442000e-02 -2.554000e-02 -8.996000e-03 
-4.378300e-02 -2.707700e-02 -5.397600e-03 
-4.442000e-02 -2.554000e-02 -5.397600e-03 
-4.378300e-02 -2.707700e-02 -1.799200e-03 
-4.442000e-02 -2.554000e-02 -1.799200e-03 
-4.378300e-02 -2.707700e-02 1.799200e-03 
-4.442000e-02 -2.554000e-02 1.799200e-03 
-4.378300e-02 -2.707700e-02 5.397600e-03 
-4.442000e-02 -2.554000e-02 5.397600e-03 
-4.378300e-02 -2.707700e-02 8.996000e-03 
-4.442000e-02 -2.554000e-02 8.996000e-03 
-4.378300e-02 -2.707700e-02 1.259400e-02 
-4.442000e-02 -2.554000e-02 1.259400e-02 
-4.378300e-02 -2.707700e-02 1.619300e-02 
-4.442000e-02 -2.554000e-02 1.619300e-02 
-4.378300e-02 -2.707700e-02 1.979100e-02 
-4.442000e-02 -2.554000e-02 1.979100e-02 
-4.378300e-02 -2.707700e-02 2.339000e-02 
-4.442000e-02 -2.554000e-02 2.339000e-02 
-4.378300e-02 -2.707700e-02 2.698800e-02 
-4.442000e-02 -2.554000e-02 2.698800e-02 
-4.378300e-02 -2.707700e-02 3.058700e-02 
-4.442000e-02 -2.554000e-02 3.058700e-02 
-4.378300e-02 -2.707700e-02 3.418500e-02 
-4.442000e-02 -2.554000e-02 3.418500e-02 
-4.378300e-02 -2.707700e-02 3.778300e-02 
-4.442000e-02 -2.554000e-02 3.778300e-02 
-4.378300e-02 -2.707700e-02 4.138200e-02 
-4.442000e-02 -2.554000e-02 4.138200e-02 
-4.378300e-02 -2.562800e-02 4.498000e-02 
-4.380900e-02 -2.554000e-02 4.498000e-02 
-4.378300e-02 -2.554000e-02 4.500000e-02 
-4.013500e-02 -2.554000e-02 -4.500000e-02 
-4.013500e-02 -2.554000e-02 4.500000e-02 
-3.648600e-02 -2.554000e-02 -4.500000e-02 
-3.648600e-02 -2.554000e-02 4.500000e-02 
-3.283700e-02 -2.554000e-02 -4.500000e-02 
-3.283700e-02 -2.554000e-02 4.500000e-02 
-2.918900e-02 -2.554000e-02 -4.500000e-02 
-2.918900e-02 -2.554000e-02 4.500000e-02 
-2.554000e-02 -2.554000e-02 -4.500000e-02 
-2.554000e-02 -2.554000e-02 4.500000e-02 
-2.189200e-02 -2.554000e-02 -4.500000e-02 
-2.189200e-02 -2.554000e-02 4.500000e-02 
-1.824300e-02 -2.554000e-02 -4.500000e-02 
-1.824300e-02 -2.554000e-02 4.500000e-02 
-1.459400e-02 -2.554000e-02 -4.500000e-02 
-1.459400e-02 -2.554000e-02 4.500000e-02 
-1.094600e-02 -2.554000e-02 -4.500000e-02 
-1.094600e-02 -2.554000e-02 4.500000e-02 
-7.297200e-03 -2.554000e-02 -4.500000e-02 
-7.297200e-03 -2.554000e-02 4.500000e-02 
-3.648600e-03 -2.554000e-02 -4.500000e-02 
-3.648600e-03 -2.554000e-02 4.500000e-02 
0.000000e+00 -2.554000e-02 -4.500000e-02 
0.000000e+00 -2.554000e-02 4.500000e-02 
3.648600e-03 -2.554000e-02 -4.500000e-02 
3.648600e-03 -2.554000e-02 4.500000e-02 
7.297200e-03 -2.554000e-02 -4.500000e-02 
7.297200e-03 -2.554000e-02 4.500000e-02 
1.094600e-02 -2.554000e-02 -4.500000e-02 
1.094600e-02 -2.554000e-02 4.500000e-02 
1.459400e-02 -2.554000e-02 -4.500000e-02 
1.459400e-02 -2.554000e-02 4.500000e-02 
1.824300e-02 -2.554000e-02 -4.500000e-02 
1.824300e-02 -2.554000e-02 4.500000e-02 
2.189200e-02 -2.554000e-02 -4.500000e-02 
2.189200e-02 -2.554000e-02 4.500000e-02 
2.554000e-02 -2.554000e-02 -4.500000e-02 
2.554000e-02 -2.554000e-02 4.500000e-02 
2.918900e-02 -2.554000e-02 -4.500000e-02 
2.918900e-02 -2.554000e-02 4.500000e-02 
3.283700e-02 -2.554000e-02 -4.500000e-02 
3.283700e-02 -2.554000e-02 4.500000e-02 
3.648600e-02 -2.554000e-02 -4.500000e-02 
3.648600e-02 -2.554000e-02 4.500000e-02 
4.013500e-02 -2.554000e-02 -4.500000e-02 
4.013500e-02 -2.554000e-02 4.500000e-02 
4.378300e-02 -2.562800e-02 -4.498000e-02 
4.378300e-02 -2.554000e-02 -4.500000e-02 
4.378300e-02 -2.707700e-02 -4.138200e-02 
4.378300e-02 -2.707700e-02 -3.778300e-02 
4.378300e-02 -2.707700e-02 -3.418500e-02 
4.378300e-02 -2.707700e-02 -3.058600e-02 
4.378300e-02 -2.707700e-02 -2.698800e-02 
4.378300e-02 -2.707700e-02 -2.339000e-02 
4.378300e-02 -2.707700e-02 -1.979100e-02 
4.378300e-02 -2.707700e-02 -1.619300e-02 
4.378300e-02 -2.707700e-02 -1.259400e-02 
4.378300e-02 -2.707700e-02 -8.996000e-03 
4.378300e-02 -2.707700e-02 -5.397600e-03 
4.378300e-02 -2.707700e-02 -1.799200e-03 
4.378300e-02 -2.707700e-02 1.799200e-03 
4.378300e-02 -2.707700e-02 5.397600e-03 
4.378300e-02 -2.707700e-02 8.996000e-03 
4.378300e-02 -2.707700e-02 1.259400e-02 
4.378300e-02 -2.707700e-02 1.619300e-02 
4.378300e-02 -2.707700e-02 1.979100e-02 
4.378300e-02 -2.707700e-02 2.339000e-02 
4.378300e-02 -2.707700e-02 2.698800e-02 
4.378300e-02 -2.707700e-02 3.058700e-02 
4.378300e-02 -2.707700e-02 3.418500e-02 
4.378300e-02 -2.707700e-02 3.778300e-02 
4.378300e-02 -2.707700e-02 4.138200e-02 
4.378300e-02 -2.562800e-02 4.498000e-02 
4.378300e-02 -2.554000e-02 4.500000e-02 
4.380900e-02 -2.554000e-02 -4.498000e-02 
4.442000e-02 -2.554000e-02 -4.138200e-02 
4.442000e-02 -2.554000e-02 -3.778300e-02 
4.442000e-02 -2.554000e-02 -3.418500e-02 
4.442000e-02 -2.554000e-02 -3.058600e-02 
4.442000e-02 -2.554000e-02 -2.698800e-02 
4.442000e-02 -2.554000e-02 -2.339000e-02 
4.442000e-02 -2.554000e-02 -1.979100e-02 
4.442000e-02 -2.554000e-02 -1.619300e-02 
4.442000e-02 -2.554000e-02 -1.259400e-02 
4.442000e-02 -2.554000e-02 -8.996000e-03 
4.442000e-02 -2.554000e-02 -5.397600e-03 
4.442000e-02 -2.554000e-02 -1.799200e-03 
4.442000e-02 -2.554000e-02 1.799200e-03 
4.442000e-02 -2.554000e-02 5.397600e-03 
4.442000e-02 -2.554000e-02 8.996000e-03 
4.442000e-02 -2.554000e-02 1.259400e-02 
4.442000e-02 -2.554000e-02 1.619300e-02 
4.442000e-02 -2.554000e-02 1.979100e-02 
4.442000e-02 -2.554000e-02 2.339000e-02 
4.442000e-02 -2.554000e-02 2.698800e-02 
4.442000e-02 -2.554000e-02 3.058700e-02 
4.442000e-02 -2.554000e-02 3.418500e-02 
4.442000e-02 -2.554000e-02 3.778300e-02 
4.442000e-02 -2.554000e-02 4.138200e-02 
4.380900e-02 -2.554000e-02 4.498000e-02 
-4.378300e-02 -2.189200e-02 -4.500000e-02 
-4.383500e-02 -2.189200e-02 -4.498000e-02 
-4.593100e-02 -2.189200e-02 -4.138200e-02 
-4.593100e-02 -2.189200e-02 -3.778300e-02 
-4.593100e-02 -2.189200e-02 -3.418500e-02 
-4.593100e-02 -2.189200e-02 -3.058600e-02 
-4.593100e-02 -2.189200e-02 -2.698800e-02 
-4.593100e-02 -2.189200e-02 -2.339000e-02 
-4.593100e-02 -2.189200e-02 -1.979100e-02 
-4.593100e-02 -2.189200e-02 -1.619300e-02 
-4.593100e-02 -2.189200e-02 -1.259400e-02 
-4.593100e-02 -2.189200e-02 -8.996000e-03 
-4.593100e-02 -2.189200e-02 -5.397600e-03 
-4.593100e-02 -2.189200e-02 -1.799200e-03 
-4.593100e-02 -2.189200e-02 1.799200e-03 
-4.593100e-02 -2.189200e-02 5.397600e-03 
-4.593100e-02 -2.189200e-02 8.996000e-03 
-4.593100e-02 -2.189200e-02 1.259400e-02 
-4.593100e-02 -2.189200e-02 1.619300e-02 
-4.593100e-02 -2.189200e-02 1.979100e-02 
-4.593100e-02 -2.189200e-02 2.339000e-02 
-4.593100e-02 -2.189200e-02 2.698800e-02 
-4.593100e-02 -2.189200e-02 3.058700e-02 
-4.593100e-02 -2.189200e-02 3.418500e-02 
-4.593100e-02 -2.189200e-02 3.778300e-02 
-4.593100e-02 -2.189200e-02 4.138200e-02 
-4.383500e-02 -2.189200e-02 4.498000e-02 
-4.378300e-02 -2.189200e-02 4.500000e-02 
-4.013500e-02 -2.189200e-02 -4.500000e-02 
-4.013500e-02 -2.189200e-02 4.500000e-02 
-3.648600e-02 -2.189200e-02 -4.500000e-02 
-3.648600e-02 -2.189200e-02 4.500000e-02 
-3.283700e-02 -2.189200e-02 -4.500000e-02 
-3.283700e-02 -2.189200e-02 4.500000e-02 
-2.918900e-02 -2.189200e-02 -4.500000e-02 
-2.918900e-02 -2.189200e-02 4.500000e-02 
-2.554000e-02 -2.189200e-02 -4.500000e-02 
-2.554000e-02 -2.189200e-02 4.500000e-02 
-2.189200e-02 -2.189200e-02 -4.500000e-02 
-2.189200e-02 -2.189200e-02 4.500000e-02 
-1.824300e-02 -2.189200e-02 -4.500000e-02 
-1.824300e-02 -2.189200e-02 4.500000e-02 
-1.459400e-02 -2.189200e-02 -4.500000e-02 
-1.459400e-02 -2.189200e-02 4.500000e-02 
-1.094600e-02 -2.189200e-02 -4.500000e-02 
-1.094600e-02 -2.189200e-02 4.500000e-02 
-7.297200e-03 -2.189200e-02 -4.500000e-02 
-7.297200e-03 -2.189200e-02 4.500000e-02 
-3.648600e-03 -2.189200e-02 -4.500000e-02 
-3.648600e-03 -2.189200e-02 4.500000e-02 
0.000000e+00 -2.189200e-02 -4.500000e-02 
0.000000e+00 -2.189200e-02 4.500000e-02 
3.648600e-03 -2.189200e-02 -4.500000e-02 
3.648600e-03 -2.189200e-02 4.500000e-02 
7.297200e-03 -2.189200e-02 -4.500000e-02 
7.297200e-03 -2.189200e-02 4.500000e-02 
1.094600e-02 -2.189200e-02 -4.500000e-02 
1.094600e-02 -2.189200e-02 4.500000e-02 
1.459400e-02 -2.189200e-02 -4.500000e-02 
1.459400e-02 -2.189200e-02 4.500000e-02 
1.824300e-02 -2.189200e-02 -4.500000e-02 
1.824300e-02 -2.189200e-02 4.500000e-02 
2.189200e-02 -2.189200e-02 -4.500000e-02 
2.189200e-02 -2.189200e-02 4.500000e-02 
2.554000e-02 -2.189200e-02 -4.500000e-02 
2.554000e-02 -2.189200e-02 4.500000e-02 
2.918900e-02 -2.189200e-02 -4.500000e-02 
2.918900e-02 -2.189200e-02 4.500000e-02 
3.283700e-02 -2.189200e-02 -4.500000e-02 
3.283700e-02 -2.189200e-02 4.500000e-02 
3.648600e-02 -2.189200e-02 -4.500000e-02 
3.648600e-02 -2.189200e-02 4.500000e-02 
4.013500e-02 -2.189200e-02 -4.500000e-02 
4.013500e-02 -2.189200e-02 4.500000e-02 
4.378300e-02 -2.189200e-02 -4.500000e-02 
4.378300e-02 -2.189200e-02 4.500000e-02 
4.383500e-02 -2.189200e-02 -4.498000e-02 
4.593100e-02 -2.189200e-02 -4.138200e-02 
4.593100e-02 -2.189200e-02 -3.778300e-02 
4.593100e-02 -2.189200e-02 -3.418500e-02 
4.593100e-02 -2.189200e-02 -3.058600e-02 
4.593100e-02 -2.189200e-02 -2.698800e-02 
4.593100e-02 -2.189200e-02 -2.339000e-02 
4.593100e-02 -2.189200e-02 -1.979100e-02 
4.593100e-02 -2.189200e-02 -1.619300e-02 
4.593100e-02 -2.189200e-02 -1.259400e-02 
4.593100e-02 -2.189200e-02 -8.996000e-03 
4.593100e-02 -2.189200e-02 -5.397600e-03 
4.593100e-02 -2.189200e-02 -1.799200e-03 
4.593100e-02 -2.189200e-02 1.799200e-03 
4.593100e-02 -2.189200e-02 5.397600e-03 
4.593100e-02 -2.189200e-02 8.996000e-03 
4.593100e-02 -2.189200e-02 1.259400e-02 
4.593100e-02 -2.189200e-02 1.619300e-02 
4.593100e-02 -2.189200e-02 1.979100e-02 
4.593100e-02 -2.189200e-02 2.339000e-02 
4.593100e-02 -2.189200e-02 2.698800e-02 
4.593100e-02 -2.189200e-02 3.058700e-02 
4.593100e-02 -2.189200e-02 3.418500e-02 
4.593100e-02 -2.189200e-02 3.778300e-02 
4.593100e-02 -2.189200e-02 4.138200e-02 
4.383500e-02 -2.189200e-02 4.498000e-02 
-4.743200e-02 -1.824300e-02 -4.499000e-02 
-4.743200e-02 -1.827000e-02 -4.498000e-02 
-4.744300e-02 -1.824300e-02 -4.498000e-02 
-4.743200e-02 -1.827000e-02 -4.138200e-02 
-4.744300e-02 -1.824300e-02 -4.138200e-02 
-4.743200e-02 -1.827000e-02 -3.778300e-02 
-4.744300e-02 -1.824300e-02 -3.778300e-02 
-4.743200e-02 -1.827000e-02 -3.418500e-02 
-4.744300e-02 -1.824300e-02 -3.418500e-02 
-4.743200e-02 -1.827000e-02 -3.058600e-02 
-4.744300e-02 -1.824300e-02 -3.058600e-02 
-4.743200e-02 -1.827000e-02 -2.698800e-02 
-4.744300e-02 -1.824300e-02 -2.698800e-02 
-4.743200e-02 -1.827000e-02 -2.339000e-02 
-4.744300e-02 -1.824300e-02 -2.339000e-02 
-4.743200e-02 -1.827000e-02 -1.979100e-02 
-4.744300e-02 -1.824300e-02 -1.979100e-02 
-4.743200e-02 -1.827000e-02 -1.619300e-02 
-4.744300e-02 -1.824300e-02 -1.619300e-02 
-4.743200e-02 -1.827000e-02 -1.259400e-02 
-4.744300e-02 -1.824300e-02 -1.259400e-02 
-4.743200e-02 -1.827000e-02 -8.996000e-03 
-4.744300e-02 -1.824300e-02 -8.996000e-03 
-4.743200e-02 -1.827000e-02 -5.397600e-03 
-4.744300e-02 -1.824300e-02 -5.397600e-03 
-4.743200e-02 -1.827000e-02 -1.799200e-03 
-4.744300e-02 -1.824300e-02 -1.799200e-03 
-4.743200e-02 -1.827000e-02 1.799200e-03 
-4.744300e-02 -1.824300e-02 1.799200e-03 
-4.743200e-02 -1.827000e-02 5.397600e-03 
-4.744300e-02 -1.824300e-02 5.397600e-03 
-4.743200e-02 -1.827000e-02 8.996000e-03 
-4.744300e-02 -1.824300e-02 8.996000e-03 
-4.743200e-02 -1.827000e-02 1.259400e-02 
-4.744300e-02 -1.824300e-02 1.259400e-02 
-4.743200e-02 -1.827000e-02 1.619300e-02 
-4.744300e-02 -1.824300e-02 1.619300e-02 
-4.743200e-02 -1.827000e-02 1.979100e-02 
-4.744300e-02 -1.824300e-02 1.979100e-02 
-4.743200e-02 -1.827000e-02 2.339000e-02 
-4.744300e-02 -1.824300e-02 2.339000e-02 
-4.743200e-02 -1.827000e-02 2.698800e-02 
-4.744300e-02 -1.824300e-02 2.698800e-02 
-4.743200e-02 -1.827000e-02 3.058700e-02 
-4.744300e-02 -1.824300e-02 3.058700e-02 
-4.743200e-02 -1.827000e-02 3.418500e-02 
-4.744300e-02 -1.824300e-02 3.418500e-02 
-4.743200e-02 -1.827000e-02 3.778300e-02 
-4.744300e-02 -1.824300e-02 3.778300e-02 
-4.743200e-02 -1.827000e-02 4.138200e-02 
-4.744300e-02 -1.824300e-02 4.138200e-02 
-4.743200e-02 -1.827000e-02 4.498000e-02 
-4.744300e-02 -1.824300e-02 4.498000e-02 
-4.743200e-02 -1.824300e-02 4.499000e-02 
-4.378300e-02 -1.824300e-02 -4.500000e-02 
-4.378300e-02 -1.824300e-02 4.500000e-02 
-4.013500e-02 -1.824300e-02 -4.500000e-02 
-4.013500e-02 -1.824300e-02 4.500000e-02 
-3.648600e-02 -1.824300e-02 -4.500000e-02 
-3.648600e-02 -1.824300e-02 4.500000e-02 
-3.283700e-02 -1.824300e-02 -4.500000e-02 
-3.283700e-02 -1.824300e-02 4.500000e-02 
-2.918900e-02 -1.824300e-02 -4.500000e-02 
-2.918900e-02 -1.824300e-02 4.500000e-02 
-2.554000e-02 -1.824300e-02 -4.500000e-02 
-2.554000e-02 -1.824300e-02 4.500000e-02 
-2.189200e-02 -1.824300e-02 -4.500000e-02 
-2.189200e-02 -1.824300e-02 4.500000e-02 
-1.824300e-02 -1.824300e-02 -4.500000e-02 
-1.824300e-02 -1.824300e-02 4.500000e-02 
-1.459400e-02 -1.824300e-02 -4.500000e-02 
-1.459400e-02 -1.824300e-02 4.500000e-02 
-1.094600e-02 -1.824300e-02 -4.500000e-02 
-1.094600e-02 -1.824300e-02 4.500000e-02 
-7.297200e-03 -1.824300e-02 -4.500000e-02 
-7.297200e-03 -1.824300e-02 4.500000e-02 
-3.648600e-03 -1.824300e-02 -4.500000e-02 
-3.648600e-03 -1.824300e-02 4.500000e-02 
0.000000e+00 -1.824300e-02 -4.500000e-02 
0.000000e+00 -1.824300e-02 4.500000e-02 
3.648600e-03 -1.824300e-02 -4.500000e-02 
3.648600e-03 -1.824300e-02 4.500000e-02 
7.297200e-03 -1.824300e-02 -4.500000e-02 
7.297200e-03 -1.824300e-02 4.500000e-02 
1.094600e-02 -1.824300e-02 -4.500000e-02 
1.094600e-02 -1.824300e-02 4.500000e-02 
1.459400e-02 -1.824300e-02 -4.500000e-02 
1.459400e-02 -1.824300e-02 4.500000e-02 
1.824300e-02 -1.824300e-02 -4.500000e-02 
1.824300e-02 -1.824300e-02 4.500000e-02 
2.189200e-02 -1.824300e-02 -4.500000e-02 
2.189200e-02 -1.824300e-02 4.500000e-02 
2.554000e-02 -1.824300e-02 -4.500000e-02 
2.554000e-02 -1.824300e-02 4.500000e-02 
2.918900e-02 -1.824300e-02 -4.500000e-02 
2.918900e-02 -1.824300e-02 4.500000e-02 
3.283700e-02 -1.824300e-02 -4.500000e-02 
3.283700e-02 -1.824300e-02 4.500000e-02 
3.648600e-02 -1.824300e-02 -4.500000e-02 
3.648600e-02 -1.824300e-02 4.500000e-02 
4.013500e-02 -1.824300e-02 -4.500000e-02 
4.013500e-02 -1.824300e-02 4.500000e-02 
4.378300e-02 -1.824300e-02 -4.500000e-02 
4.378300e-02 -1.824300e-02 4.500000e-02 
4.743200e-02 -1.827000e-02 -4.498000e-02 
4.743200e-02 -1.824300e-02 -4.499000e-02 
4.743200e-02 -1.827000e-02 -4.138200e-02 
4.743200e-02 -1.827000e-02 -3.778300e-02 
4.743200e-02 -1.827000e-02 -3.418500e-02 
4.743200e-02 -1.827000e-02 -3.058600e-02 
4.743200e-02 -1.827000e-02 -2.698800e-02 
4.743200e-02 -1.827000e-02 -2.339000e-02 
4.743200e-02 -1.827000e-02 -1.979100e-02 
4.743200e-02 -1.827000e-02 -1.619300e-02 
4.743200e-02 -1.827000e-02 -1.259400e-02 
4.743200e-02 -1.827000e-02 -8.996000e-03 
4.743200e-02 -1.827000e-02 -5.397600e-03 
4.743200e-02 -1.827000e-02 -1.799200e-03 
4.743200e-02 -1.827000e-02 1.799200e-03 
4.743200e-02 -1.827000e-02 5.397600e-03 
4.743200e-02 -1.827000e-02 8.996000e-03 
4.743200e-02 -1.827000e-02 1.259400e-02 
4.743200e-02 -1.827000e-02 1.619300e-02 
4.743200e-02 -1.827000e-02 1.979100e-02 
4.743200e-02 -1.827000e-02 2.339000e-02 
4.743200e-02 -1.827000e-02 2.698800e-02 
4.743200e-02 -1.827000e-02 3.058700e-02 
4.743200e-02 -1.827000e-02 3.418500e-02 
4.743200e-02 -1.827000e-02 3.778300e-02 
4.743200e-02 -1.827000e-02 4.138200e-02 
4.743200e-02 -1.827000e-02 4.498000e-02 
4.743200e-02 -1.824300e-02 4.499000e-02 
4.744300e-02 -1.824300e-02 -4.498000e-02 
4.744300e-02 -1.824300e-02 -4.138200e-02 
4.744300e-02 -1.824300e-02 -3.778300e-02 
4.744300e-02 -1.824300e-02 -3.418500e-02 
4.744300e-02 -1.824300e-02 -3.058600e-02 
4.744300e-02 -1.824300e-02 -2.698800e-02 
4.744300e-02 -1.824300e-02 -2.339000e-02 
4.744300e-02 -1.824300e-02 -1.979100e-02 
4.744300e-02 -1.824300e-02 -1.619300e-02 
4.744300e-02 -1.824300e-02 -1.259400e-02 
4.744300e-02 -1.824300e-02 -8.996000e-03 
4.744300e-02 -1.824300e-02 -5.397600e-03 
4.744300e-02 -1.824300e-02 -1.799200e-03 
4.744300e-02 -1.824300e-02 1.799200e-03 
4.744300e-02 -1.824300e-02 5.397600e-03 
4.744300e-02 -1.824300e-02 8.996000e-03 
4.744300e-02 -1.824300e-02 1.259400e-02 
4.744300e-02 -1.824300e-02 1.619300e-02 
4.744300e-02 -1.824300e-02 1.979100e-02 
4.744300e-02 -1.824300e-02 2.339000e-02 
4.744300e-02 -1.824300e-02 2.698800e-02 
4.744300e-02 -1.824300e-02 3.058700e-02 
4.744300e-02 -1.824300e-02 3.418500e-02 
4.744300e-02 -1.824300e-02 3.778300e-02 
4.744300e-02 -1.824300e-02 4.138200e-02 
4.744300e-02 -1.824300e-02 4.498000e-02 
-4.743200e-02 -1.459400e-02 -4.500000e-02 
-4.746800e-02 -1.459400e-02 -4.498000e-02 
-4.895400e-02 -1.459400e-02 -4.138200e-02 
-4.895400e-02 -1.459400e-02 -3.778300e-02 
-4.895400e-02 -1.459400e-02 -3.418500e-02 
-4.895400e-02 -1.459400e-02 -3.058600e-02 
-4.895400e-02 -1.459400e-02 -2.698800e-02 
-4.895400e-02 -1.459400e-02 -2.339000e-02 
-4.895400e-02 -1.459400e-02 -1.979100e-02 
-4.895400e-02 -1.459400e-02 -1.619300e-02 
-4.895400e-02 -1.459400e-02 -1.259400e-02 
-4.895400e-02 -1.459400e-02 -8.996000e-03 
-4.895400e-02 -1.459400e-02 -5.397600e-03 
-4.895400e-02 -1.459400e-02 -1.799200e-03 
-4.895400e-02 -1.459400e-02 1.799200e-03 
-4.895400e-02 -1.459400e-02 5.397600e-03 
-4.895400e-02 -1.459400e-02 8.996000e-03 
-4.895400e-02 -1.459400e-02 1.259400e-02 
-4.895400e-02 -1.459400e-02 1.619300e-02 
-4.895400e-02 -1.459400e-02 1.979100e-02 
-4.895400e-02 -1.459400e-02 2.339000e-02 
-4.895400e-02 -1.459400e-02 2.698800e-02 
-4.895400e-02 -1.459400e-02 3.058700e-02 
-4.895400e-02 -1.459400e-02 3.418500e-02 
-4.895400e-02 -1.459400e-02 3.778300e-02 
-4.895400e-02 -1.459400e-02 4.138200e-02 
-4.746800e-02 -1.459400e-02 4.498000e-02 
-4.743200e-02 -1.459400e-02 4.500000e-02 
-4.378300e-02 -1.459400e-02 -4.500000e-02 
-4.378300e-02 -1.459400e-02 4.500000e-02 
-4.013500e-02 -1.459400e-02 -4.500000e-02 
-4.013500e-02 -1.459400e-02 4.500000e-02 
-3.648600e-02 -1.459400e-02 -4.500000e-02 
-3.648600e-02 -1.459400e-02 4.500000e-02 
-3.283700e-02 -1.459400e-02 -4.500000e-02 
-3.283700e-02 -1.459400e-02 4.500000e-02 
-2.918900e-02 -1.459400e-02 -4.500000e-02 
-2.918900e-02 -1.459400e-02 4.500000e-02 
-2.554000e-02 -1.459400e-02 -4.500000e-02 
-2.554000e-02 -1.459400e-02 4.500000e-02 
-2.189200e-02 -1.459400e-02 -4.500000e-02 
-2.189200e-02 -1.459400e-02 4.500000e-02 
-1.824300e-02 -1.459400e-02 -4.500000e-02 
-1.824300e-02 -1.459400e-02 4.500000e-02 
-1.459400e-02 -1.459400e-02 -4.500000e-02 
-1.459400e-02 -1.459400e-02 4.500000e-02 
-1.094600e-02 -1.459400e-02 -4.500000e-02 
-1.094600e-02 -1.459400e-02 4.500000e-02 
-7.297200e-03 -1.459400e-02 -4.500000e-02 
-7.297200e-03 -1.459400e-02 4.500000e-02 
-3.648600e-03 -1.459400e-02 -4.500000e-02 
-3.648600e-03 -1.459400e-02 4.500000e-02 
0.000000e+00 -1.459400e-02 -4.500000e-02 
0.000000e+00 -1.459400e-02 4.500000e-02 
3.648600e-03 -1.459400e-02 -4.500000e-02 
3.648600e-03 -1.459400e-02 4.500000e-02 
7.297200e-03 -1.459400e-02 -4.500000e-02 
7.297200e-03 -1.459400e-02 4.500000e-02 
1.094600e-02 -1.459400e-02 -4.500000e-02 
1.094600e-02 -1.459400e-02 4.500000e-02 
1.459400e-02 -1.459400e-02 -4.500000e-02 
1.459400e-02 -1.459400e-02 4.500000e-02 
1.824300e-02 -1.459400e-02 -4.500000e-02 
1.824300e-02 -1.459400e-02 4.500000e-02 
2.189200e-02 -1.459400e-02 -4.500000e-02 
2.189200e-02 -1.459400e-02 4.500000e-02 
2.554000e-02 -1.459400e-02 -4.500000e-02 
2.554000e-02 -1.459400e-02 4.500000e-02 
2.918900e-02 -1.459400e-02 -4.500000e-02 
2.918900e-02 -1.459400e-02 4.500000e-02 
3.283700e-02 -1.459400e-02 -4.500000e-02 
3.283700e-02 -1.459400e-02 4.500000e-02 
3.648600e-02 -1.459400e-02 -4.500000e-02 
3.648600e-02 -1.459400e-02 4.500000e-02 
4.013500e-02 -1.459400e-02 -4.500000e-02 
4.013500e-02 -1.459400e-02 4.500000e-02 
4.378300e-02 -1.459400e-02 -4.500000e-02 
4.378300e-02 -1.459400e-02 4.500000e-02 
4.743200e-02 -1.459400e-02 -4.500000e-02 
4.743200e-02 -1.459400e-02 4.500000e-02 
4.746800e-02 -1.459400e-02 -4.498000e-02 
4.895400e-02 -1.459400e-02 -4.138200e-02 
4.895400e-02 -1.459400e-02 -3.778300e-02 
4.895400e-02 -1.459400e-02 -3.418500e-02 
4.895400e-02 -1.459400e-02 -3.058600e-02 
4.895400e-02 -1.459400e-02 -2.698800e-02 
4.895400e-02 -1.459400e-02 -2.339000e-02 
4.895400e-02 -1.459400e-02 -1.979100e-02 
4.895400e-02 -1.459400e-02 -1.619300e-02 
4.895400e-02 -1.459400e-02 -1.259400e-02 
4.895400e-02 -1.459400e-02 -8.996000e-03 
4.895400e-02 -1.459400e-02 -5.397600e-03 
4.895400e-02 -1.459400e-02 -1.799200e-03 
4.895400e-02 -1.459400e-02 1.799200e-03 
4.895400e-02 -1.459400e-02 5.397600e-03 
4.895400e-02 -1.459400e-02 8.996000e-03 
4.895400e-02 -1.459400e-02 1.259400e-02 
4.895400e-02 -1.459400e-02 1.619300e-02 
4.895400e-02 -1.459400e-02 1.979100e-02 
4.895400e-02 -1.459400e-02 2.339000e-02 
4.895400e-02 -1.459400e-02 2.698800e-02 
4.895400e-02 -1.459400e-02 3.058700e-02 
4.895400e-02 -1.459400e-02 3.418500e-02 
4.895400e-02 -1.459400e-02 3.778300e-02 
4.895400e-02 -1.459400e-02 4.138200e-02 
4.746800e-02 -1.459400e-02 4.498000e-02 
-4.743200e-02 -1.094600e-02 -4.500000e-02 
-4.755500e-02 -1.094600e-02 -4.498000e-02 
-5.046600e-02 -1.094600e-02 -4.138200e-02 
-5.046600e-02 -1.094600e-02 -3.778300e-02 
-5.046600e-02 -1.094600e-02 -3.418500e-02 
-5.046600e-02 -1.094600e-02 -3.058600e-02 
-5.046600e-02 -1.094600e-02 -2.698800e-02 
-5.046600e-02 -1.094600e-02 -2.339000e-02 
-5.046600e-02 -1.094600e-02 -1.979100e-02 
-5.046600e-02 -1.094600e-02 -1.619300e-02 
-5.046600e-02 -1.094600e-02 -1.259400e-02 
-5.046600e-02 -1.094600e-02 -8.996000e-03 
-5.046600e-02 -1.094600e-02 -5.397600e-03 
-5.046600e-02 -1.094600e-02 -1.799200e-03 
-5.046600e-02 -1.094600e-02 1.799200e-03 
-5.046600e-02 -1.094600e-02 5.397600e-03 
-5.046600e-02 -1.094600e-02 8.996000e-03 
-5.046600e-02 -1.094600e-02 1.259400e-02 
-5.046600e-02 -1.094600e-02 1.619300e-02 
-5.046600e-02 -1.094600e-02 1.979100e-02 
-5.046600e-02 -1.094600e-02 2.339000e-02 
-5.046600e-02 -1.094600e-02 2.698800e-02 
-5.046600e-02 -1.094600e-02 3.058700e-02 
-5.046600e-02 -1.094600e-02 3.418500e-02 
-5.046600e-02 -1.094600e-02 3.778300e-02 
-5.046600e-02 -1.094600e-02 4.138200e-02 
-4.755500e-02 -1.094600e-02 4.498000e-02 
-4.743200e-02 -1.094600e-02 4.500000e-02 
-4.378300e-02 -1.094600e-02 -4.500000e-02 
-4.378300e-02 -1.094600e-02 4.500000e-02 
-4.013500e-02 -1.094600e-02 -4.500000e-02 
-4.013500e-02 -1.094600e-02 4.500000e-02 
-3.648600e-02 -1.094600e-02 -4.500000e-02 
-3.648600e-02 -1.094600e-02 4.500000e-02 
-3.283700e-02 -1.094600e-02 -4.500000e-02 
-3.283700e-02 -1.094600e-02 4.500000e-02 
-2.918900e-02 -1.094600e-02 -4.500000e-02 
-2.918900e-02 -1.094600e-02 4.500000e-02 
-2.554000e-02 -1.094600e-02 -4.500000e-02 
-2.554000e-02 -1.094600e-02 4.500000e-02 
-2.189200e-02 -1.094600e-02 -4.500000e-02 
-2.189200e-02 -1.094600e-02 4.500000e-02 
-1.824300e-02 -1.094600e-02 -4.500000e-02 
-1.824300e-02 -1.094600e-02 4.500000e-02 
-1.459400e-02 -1.094600e-02 -4.500000e-02 
-1.459400e-02 -1.094600e-02 4.500000e-02 
-1.094600e-02 -1.094600e-02 -4.500000e-02 
-1.094600e-02 -1.094600e-02 4.500000e-02 
-7.297200e-03 -1.094600e-02 -4.500000e-02 
-7.297200e-03 -1.094600e-02 4.500000e-02 
-3.648600e-03 -1.094600e-02 -4.500000e-02 
-3.648600e-03 -1.094600e-02 4.500000e-02 
0.000000e+00 -1.094600e-02 -4.500000e-02 
0.000000e+00 -1.094600e-02 4.500000e-02 
3.648600e-03 -1.094600e-02 -4.500000e-02 
3.648600e-03 -1.094600e-02 4.500000e-02 
7.297200e-03 -1.094600e-02 -4.500000e-02 
7.297200e-03 -1.094600e-02 4.500000e-02 
1.094600e-02 -1.094600e-02 -4.500000e-02 
1.094600e-02 -1.094600e-02 4.500000e-02 
1.459400e-02 -1.094600e-02 -4.500000e-02 
1.459400e-02 -1.094600e-02 4.500000e-02 
1.824300e-02 -1.094600e-02 -4.500000e-02 
1.824300e-02 -1.094600e-02 4.500000e-02 
2.189200e-02 -1.094600e-02 -4.500000e-02 
2.189200e-02 -1.094600e-02 4.500000e-02 
2.554000e-02 -1.094600e-02 -4.500000e-02 
2.554000e-02 -1.094600e-02 4.500000e-02 
2.918900e-02 -1.094600e-02 -4.500000e-02 
2.918900e-02 -1.094600e-02 4.500000e-02 
3.283700e-02 -1.094600e-02 -4.500000e-02 
3.283700e-02 -1.094600e-02 4.500000e-02 
3.648600e-02 -1.094600e-02 -4.500000e-02 
3.648600e-02 -1.094600e-02 4.500000e-02 
4.013500e-02 -1.094600e-02 -4.500000e-02 
4.013500e-02 -1.094600e-02 4.500000e-02 
4.378300e-02 -1.094600e-02 -4.500000e-02 
4.378300e-02 -1.094600e-02 4.500000e-02 
4.743200e-02 -1.094600e-02 -4.500000e-02 
4.743200e-02 -1.094600e-02 4.500000e-02 
4.755500e-02 -1.094600e-02 -4.498000e-02 
5.046600e-02 -1.094600e-02 -4.138200e-02 
5.046600e-02 -1.094600e-02 -3.778300e-02 
5.046600e-02 -1.094600e-02 -3.418500e-02 
5.046600e-02 -1.094600e-02 -3.058600e-02 
5.046600e-02 -1.094600e-02 -2.698800e-02 
5.046600e-02 -1.094600e-02 -2.339000e-02 
5.046600e-02 -1.094600e-02 -1.979100e-02 
5.046600e-02 -1.094600e-02 -1.619300e-02 
5.046600e-02 -1.094600e-02 -1.259400e-02 
5.046600e-02 -1.094600e-02 -8.996000e-03 
5.046600e-02 -1.094600e-02 -5.397600e-03 
5.046600e-02 -1.094600e-02 -1.799200e-03 
5.046600e-02 -1.094600e-02 1.799200e-03 
5.046600e-02 -1.094600e-02 5.397600e-03 
5.046600e-02 -1.094600e-02 8.996000e-03 
5.046600e-02 -1.094600e-02 1.259400e-02 
5.046600e-02 -1.094600e-02 1.619300e-02 
5.046600e-02 -1.094600e-02 1.979100e-02 
5.046600e-02 -1.094600e-02 2.339000e-02 
5.046600e-02 -1.094600e-02 2.698800e-02 
5.046600e-02 -1.094600e-02 3.058700e-02 
5.046600e-02 -1.094600e-02 3.418500e-02 
5.046600e-02 -1.094600e-02 3.778300e-02 
5.046600e-02 -1.094600e-02 4.138200e-02 
4.755500e-02 -1.094600e-02 4.498000e-02 
-5.108100e-02 -7.297200e-03 -4.500000e-02 
-5.108100e-02 -7.420500e-03 -4.498000e-02 
-5.110900e-02 -7.297200e-03 -4.498000e-02 
-5.108100e-02 -9.461700e-03 -4.138200e-02 
-5.197700e-02 -7.297200e-03 -4.138200e-02 
-5.108100e-02 -9.461700e-03 -3.778300e-02 
-5.197700e-02 -7.297200e-03 -3.778300e-02 
-5.108100e-02 -9.461700e-03 -3.418500e-02 
-5.197700e-02 -7.297200e-03 -3.418500e-02 
-5.108100e-02 -9.461700e-03 -3.058600e-02 
-5.197700e-02 -7.297200e-03 -3.058600e-02 
-5.108100e-02 -9.461700e-03 -2.698800e-02 
-5.197700e-02 -7.297200e-03 -2.698800e-02 
-5.108100e-02 -9.461700e-03 -2.339000e-02 
-5.197700e-02 -7.297200e-03 -2.339000e-02 
-5.108100e-02 -9.461700e-03 -1.979100e-02 
-5.197700e-02 -7.297200e-03 -1.979100e-02 
-5.108100e-02 -9.461700e-03 -1.619300e-02 
-5.197700e-02 -7.297200e-03 -1.619300e-02 
-5.108100e-02 -9.461700e-03 -1.259400e-02 
-5.197700e-02 -7.297200e-03 -1.259400e-02 
-5.108100e-02 -9.461700e-03 -8.996000e-03 
-5.197700e-02 -7.297200e-03 -8.996000e-03 
-5.108100e-02 -9.461700e-03 -5.397600e-03 
-5.197700e-02 -7.297200e-03 -5.397600e-03 
-5.108100e-02 -9.461700e-03 -1.799200e-03 
-5.197700e-02 -7.297200e-03 -1.799200e-03 
-5.108100e-02 -9.461700e-03 1.799200e-03 
-5.197700e-02 -7.297200e-03 1.799200e-03 
-5.108100e-02 -9.461700e-03 5.397600e-03 
-5.197700e-02 -7.297200e-03 5.397600e-03 
-5.108100e-02 -9.461700e-03 8.996000e-03 
-5.197700e-02 -7.297200e-03 8.996000e-03 
-5.108100e-02 -9.461700e-03 1.259400e-02 
-5.197700e-02 -7.297200e-03 1.259400e-02 
-5.108100e-02 -9.461700e-03 1.619300e-02 
-5.197700e-02 -7.297200e-03 1.619300e-02 
-5.108100e-02 -9.461700e-03 1.979100e-02 
-5.197700e-02 -7.297200e-03 1.979100e-02 
-5.108100e-02 -9.461700e-03 2.339000e-02 
-5.197700e-02 -7.297200e-03 2.339000e-02 
-5.108100e-02 -9.461700e-03 2.698800e-02 
-5.197700e-02 -7.297200e-03 2.698800e-02 
-5.108100e-02 -9.461700e-03 3.058700e-02 
-5.197700e-02 -7.297200e-03 3.058700e-02 
-5.108100e-02 -9.461700e-03 3.418500e-02 
-5.197700e-02 -7.297200e-03 3.418500e-02 
-5.108100e-02 -9.461700e-03 3.778300e-02 
-5.197700e-02 -7.297200e-03 3.778300e-02 
-5.108100e-02 -9.461700e-03 4.138200e-02 
-5.197700e-02 -7.297200e-03 4.138200e-02 
-5.108100e-02 -7.420500e-03 4.498000e-02 
-5.110900e-02 -7.297200e-03 4.498000e-02 
-5.108100e-02 -7.297200e-03 4.500000e-02 
-4.743200e-02 -7.297200e-03 -4.500000e-02 
-4.743200e-02 -7.297200e-03 4.500000e-02 
-4.378300e-02 -7.297200e-03 -4.500000e-02 
-4.378300e-02 -7.297200e-03 4.500000e-02 
-4.013500e-02 -7.297200e-03 -4.500000e-02 
-4.013500e-02 -7.297200e-03 4.500000e-02 
-3.648600e-02 -7.297200e-03 -4.500000e-02 
-3.648600e-02 -7.297200e-03 4.500000e-02 
-3.283700e-02 -7.297200e-03 -4.500000e-02 
-3.283700e-02 -7.297200e-03 4.500000e-02 
-2.918900e-02 -7.297200e-03 -4.500000e-02 
-2.918900e-02 -7.297200e-03 4.500000e-02 
-2.554000e-02 -7.297200e-03 -4.500000e-02 
-2.554000e-02 -7.297200e-03 4.500000e-02 
-2.189200e-02 -7.297200e-03 -4.500000e-02 
-2.189200e-02 -7.297200e-03 4.500000e-02 
-1.824300e-02 -7.297200e-03 -4.500000e-02 
-1.824300e-02 -7.297200e-03 4.500000e-02 
-1.459400e-02 -7.297200e-03 -4.500000e-02 
-1.459400e-02 -7.297200e-03 4.500000e-02 
-1.094600e-02 -7.297200e-03 -4.500000e-02 
-1.094600e-02 -7.297200e-03 4.500000e-02 
-7.297200e-03 -7.297200e-03 -4.500000e-02 
-7.297200e-03 -7.297200e-03 4.500000e-02 
-3.648600e-03 -7.297200e-03 -4.500000e-02 
-3.648600e-03 -7.297200e-03 4.500000e-02 
0.000000e+00 -7.297200e-03 -4.500000e-02 
0.000000e+00 -7.297200e-03 4.500000e-02 
3.648600e-03 -7.297200e-03 -4.500000e-02 
3.648600e-03 -7.297200e-03 4.500000e-02 
7.297200e-03 -7.297200e-03 -4.500000e-02 
7.297200e-03 -7.297200e-03 4.500000e-02 
1.094600e-02 -7.297200e-03 -4.500000e-02 
1.094600e-02 -7.297200e-03 4.500000e-02 
1.459400e-02 -7.297200e-03 -4.500000e-02 
1.459400e-02 -7.297200e-03 4.500000e-02 
1.824300e-02 -7.297200e-03 -4.500000e-02 
1.824300e-02 -7.297200e-03 4.500000e-02 
2.189200e-02 -7.297200e-03 -4.500000e-02 
2.189200e-02 -7.297200e-03 4.500000e-02 
2.554000e-02 -7.297200e-03 -4.500000e-02 
2.554000e-02 -7.297200e-03 4.500000e-02 
2.918900e-02 -7.297200e-03 -4.500000e-02 
2.918900e-02 -7.297200e-03 4.500000e-02 
3.283700e-02 -7.297200e-03 -4.500000e-02 
3.283700e-02 -7.297200e-03 4.500000e-02 
3.648600e-02 -7.297200e-03 -4.500000e-02 
3.648600e-02 -7.297200e-03 4.500000e-02 
4.013500e-02 -7.297200e-03 -4.500000e-02 
4.013500e-02 -7.297200e-03 4.500000e-02 
4.378300e-02 -7.297200e-03 -4.500000e-02 
4.378300e-02 -7.297200e-03 4.500000e-02 
4.743200e-02 -7.297200e-03 -4.500000e-02 
4.743200e-02 -7.297200e-03 4.500000e-02 
5.108100e-02 -7.420500e-03 -4.498000e-02 
5.108100e-02 -7.297200e-03 -4.500000e-02 
5.108100e-02 -9.461700e-03 -4.138200e-02 
5.108100e-02 -9.461700e-03 -3.778300e-02 
5.108100e-02 -9.461700e-03 -3.418500e-02 
5.108100e-02 -9.461700e-03 -3.058600e-02 
5.108100e-02 -9.461700e-03 -2.698800e-02 
5.108100e-02 -9.461700e-03 -2.339000e-02 
5.108100e-02 -9.461700e-03 -1.979100e-02 
5.108100e-02 -9.461700e-03 -1.619300e-02 
5.108100e-02 -9.461700e-03 -1.259400e-02 
5.108100e-02 -9.461700e-03 -8.996000e-03 
5.108100e-02 -9.461700e-03 -5.397600e-03 
5.108100e-02 -9.461700e-03 -1.799200e-03 
5.108100e-02 -9.461700e-03 1.799200e-03 
5.108100e-02 -9.461700e-03 5.397600e-03 
5.108100e-02 -9.461700e-03 8.996000e-03 
5.108100e-02 -9.461700e-03 1.259400e-02 
5.108100e-02 -9.461700e-03 1.619300e-02 
5.108100e-02 -9.461700e-03 1.979100e-02 
5.108100e-02 -9.461700e-03 2.339000e-02 
5.108100e-02 -9.461700e-03 2.698800e-02 
5.108100e-02 -9.461700e-03 3.058700e-02 
5.108100e-02 -9.461700e-03 3.418500e-02 
5.108100e-02 -9.461700e-03 3.778300e-02 
5.108100e-02 -9.461700e-03 4.138200e-02 
5.108100e-02 -7.420500e-03 4.498000e-02 
5.108100e-02 -7.297200e-03 4.500000e-02 
5.110900e-02 -7.297200e-03 -4.498000e-02 
5.197700e-02 -7.297200e-03 -4.138200e-02 
5.197700e-02 -7.297200e-03 -3.778300e-02 
5.197700e-02 -7.297200e-03 -3.418500e-02 
5.197700e-02 -7.297200e-03 -3.058600e-02 
5.197700e-02 -7.297200e-03 -2.698800e-02 
5.197700e-02 -7.297200e-03 -2.339000e-02 
5.197700e-02 -7.297200e-03 -1.979100e-02 
5.197700e-02 -7.297200e-03 -1.619300e-02 
5.197700e-02 -7.297200e-03 -1.259400e-02 
5.197700e-02 -7.297200e-03 -8.996000e-03 
5.197700e-02 -7.297200e-03 -5.397600e-03 
5.197700e-02 -7.297200e-03 -1.799200e-03 
5.197700e-02 -7.297200e-03 1.799200e-03 
5.197700e-02 -7.297200e-03 5.397600e-03 
5.197700e-02 -7.297200e-03 8.996000e-03 
5.197700e-02 -7.297200e-03 1.259400e-02 
5.197700e-02 -7.297200e-03 1.619300e-02 
5.197700e-02 -7.297200e-03 1.979100e-02 
5.197700e-02 -7.297200e-03 2.339000e-02 
5.197700e-02 -7.297200e-03 2.698800e-02 
5.197700e-02 -7.297200e-03 3.058700e-02 
5.197700e-02 -7.297200e-03 3.418500e-02 
5.197700e-02 -7.297200e-03 3.778300e-02 
5.197700e-02 -7.297200e-03 4.138200e-02 
5.110900e-02 -7.297200e-03 4.498000e-02 
-5.108100e-02 -3.648600e-03 -4.500000e-02 
-5.114300e-02 -3.648600e-03 -4.498000e-02 
-5.348900e-02 -3.648600e-03 -4.138200e-02 
-5.348900e-02 -3.648600e-03 -3.778300e-02 
-5.348900e-02 -3.648600e-03 -3.418500e-02 
-5.348900e-02 -3.648600e-03 -3.058600e-02 
-5.348900e-02 -3.648600e-03 -2.698800e-02 
-5.348900e-02 -3.648600e-03 -2.339000e-02 
-5.348900e-02 -3.648600e-03 -1.979100e-02 
-5.348900e-02 -3.648600e-03 -1.619300e-02 
-5.348900e-02 -3.648600e-03 -1.259400e-02 
-5.348900e-02 -3.648600e-03 -8.996000e-03 
-5.348900e-02 -3.648600e-03 -5.397600e-03 
-5.348900e-02 -3.648600e-03 -1.799200e-03 
-5.348900e-02 -3.648600e-03 1.799200e-03 
-5.348900e-02 -3.648600e-03 5.397600e-03 
-5.348900e-02 -3.648600e-03 8.996000e-03 
-5.348900e-02 -3.648600e-03 1.259400e-02 
-5.348900e-02 -3.648600e-03 1.619300e-02 
-5.348900e-02 -3.648600e-03 1.979100e-02 
-5.348900e-02 -3.648600e-03 2.339000e-02 
-5.348900e-02 -3.648600e-03 2.698800e-02 
-5.348900e-02 -3.648600e-03 3.058700e-02 
-5.348900e-02 -3.648600e-03 3.418500e-02 
-5.348900e-02 -3.648600e-03 3.778300e-02 
-5.348900e-02 -3.648600e-03 4.138200e-02 
-5.114300e-02 -3.648600e-03 4.498000e-02 
-5.108100e-02 -3.648600e-03 4.500000e-02 
-4.743200e-02 -3.648600e-03 -4.500000e-02 
-4.743200e-02 -3.648600e-03 4.500000e-02 
-4.378300e-02 -3.648600e-03 -4.500000e-02 
-4.378300e-02 -3.648600e-03 4.500000e-02 
-4.013500e-02 -3.648600e-03 -4.500000e-02 
-4.013500e-02 -3.648600e-03 4.500000e-02 
-3.648600e-02 -3.648600e-03 -4.500000e-02 
-3.648600e-02 -3.648600e-03 4.500000e-02 
-3.283700e-02 -3.648600e-03 -4.500000e-02 
-3.283700e-02 -3.648600e-03 4.500000e-02 
-2.918900e-02 -3.648600e-03 -4.500000e-02 
-2.918900e-02 -3.648600e-03 4.500000e-02 
-2.554000e-02 -3.648600e-03 -4.500000e-02 
-2.554000e-02 -3.648600e-03 4.500000e-02 
-2.189200e-02 -3.648600e-03 -4.500000e-02 
-2.189200e-02 -3.648600e-03 4.500000e-02 
-1.824300e-02 -3.648600e-03 -4.500000e-02 
-1.824300e-02 -3.648600e-03 4.500000e-02 
-1.459400e-02 -3.648600e-03 -4.500000e-02 
-1.459400e-02 -3.648600e-03 4.500000e-02 
-1.094600e-02 -3.648600e-03 -4.500000e-02 
-1.094600e-02 -3.648600e-03 4.500000e-02 
-7.297200e-03 -3.648600e-03 -4.500000e-02 
-7.297200e-03 -3.648600e-03 4.500000e-02 
-3.648600e-03 -3.648600e-03 -4.500000e-02 
-3.648600e-03 -3.648600e-03 4.500000e-02 
0.000000e+00 -3.648600e-03 -4.500000e-02 
0.000000e+00 -3.648600e-03 4.500000e-02 
3.648600e-03 -3.648600e-03 -4.500000e-02 
3.648600e-03 -3.648600e-03 4.500000e-02 
7.297200e-03 -3.648600e-03 -4.500000e-02 
7.297200e-03 -3.648600e-03 4.500000e-02 
1.094600e-02 -3.648600e-03 -4.500000e-02 
1.094600e-02 -3.648600e-03 4.500000e-02 
1.459400e-02 -3.648600e-03 -4.500000e-02 
1.459400e-02 -3.648600e-03 4.500000e-02 
1.824300e-02 -3.648600e-03 -4.500000e-02 
1.824300e-02 -3.648600e-03 4.500000e-02 
2.189200e-02 -3.648600e-03 -4.500000e-02 
2.189200e-02 -3.648600e-03 4.500000e-02 
2.554000e-02 -3.648600e-03 -4.500000e-02 
2.554000e-02 -3.648600e-03 4.500000e-02 
2.918900e-02 -3.648600e-03 -4.500000e-02 
2.918900e-02 -3.648600e-03 4.500000e-02 
3.283700e-02 -3.648600e-03 -4.500000e-02 
3.283700e-02 -3.648600e-03 4.500000e-02 
3.648600e-02 -3.648600e-03 -4.500000e-02 
3.648600e-02 -3.648600e-03 4.500000e-02 
4.013500e-02 -3.648600e-03 -4.500000e-02 
4.013500e-02 -3.648600e-03 4.500000e-02 
4.378300e-02 -3.648600e-03 -4.500000e-02 
4.378300e-02 -3.648600e-03 4.500000e-02 
4.743200e-02 -3.648600e-03 -4.500000e-02 
4.743200e-02 -3.648600e-03 4.500000e-02 
5.108100e-02 -3.648600e-03 -4.500000e-02 
5.108100e-02 -3.648600e-03 4.500000e-02 
5.114300e-02 -3.648600e-03 -4.498000e-02 
5.348900e-02 -3.648600e-03 -4.138200e-02 
5.348900e-02 -3.648600e-03 -3.778300e-02 
5.348900e-02 -3.648600e-03 -3.418500e-02 
5.348900e-02 -3.648600e-03 -3.058600e-02 
5.348900e-02 -3.648600e-03 -2.698800e-02 
5.348900e-02 -3.648600e-03 -2.339000e-02 
5.348900e-02 -3.648600e-03 -1.979100e-02 
5.348900e-02 -3.648600e-03 -1.619300e-02 
5.348900e-02 -3.648600e-03 -1.259400e-02 
5.348900e-02 -3.648600e-03 -8.996000e-03 
5.348900e-02 -3.648600e-03 -5.397600e-03 
5.348900e-02 -3.648600e-03 -1.799200e-03 
5.348900e-02 -3.648600e-03 1.799200e-03 
5.348900e-02 -3.648600e-03 5.397600e-03 
5.348900e-02 -3.648600e-03 8.996000e-03 
5.348900e-02 -3.648600e-03 1.259400e-02 
5.348900e-02 -3.648600e-03 1.619300e-02 
5.348900e-02 -3.648600e-03 1.979100e-02 
5.348900e-02 -3.648600e-03 2.339000e-02 
5.348900e-02 -3.648600e-03 2.698800e-02 
5.348900e-02 -3.648600e-03 3.058700e-02 
5.348900e-02 -3.648600e-03 3.418500e-02 
5.348900e-02 -3.648600e-03 3.778300e-02 
5.348900e-02 -3.648600e-03 4.138200e-02 
5.114300e-02 -3.648600e-03 4.498000e-02 
-5.472900e-02 0.000000e+00 -4.500000e-02 
-5.472900e-02 -6.213200e-05 -4.498000e-02 
-5.475000e-02 0.000000e+00 -4.498000e-02 
-5.472900e-02 -6.538400e-04 -4.138200e-02 
-5.498100e-02 0.000000e+00 -4.138200e-02 
-5.472900e-02 -6.538400e-04 -3.778300e-02 
-5.498100e-02 0.000000e+00 -3.778300e-02 
-5.472900e-02 -6.538400e-04 -3.418500e-02 
-5.498100e-02 0.000000e+00 -3.418500e-02 
-5.472900e-02 -6.538400e-04 -3.058600e-02 
-5.498100e-02 0.000000e+00 -3.058600e-02 
-5.472900e-02 -6.538400e-04 -2.698800e-02 
-5.498100e-02 0.000000e+00 -2.698800e-02 
-5.472900e-02 -6.538400e-04 -2.339000e-02 
-5.498100e-02 0.000000e+00 -2.339000e-02 
-5.472900e-02 -6.538400e-04 -1.979100e-02 
-5.498100e-02 0.000000e+00 -1.979100e-02 
-5.472900e-02 -6.538400e-04 -1.619300e-02 
-5.498100e-02 0.000000e+00 -1.619300e-02 
-5.472900e-02 -6.538400e-04 -1.259400e-02 
-5.498100e-02 0.000000e+00 -1.259400e-02 
-5.472900e-02 -6.538400e-04 -8.996000e-03 
-5.498100e-02 0.000000e+00 -8.996000e-03 
-5.472900e-02 -6.538400e-04 -5.397600e-03 
-5.498100e-02 0.000000e+00 -5.397600e-03 
-5.472900e-02 -6.538400e-04 -1.799200e-03 
-5.498100e-02 0.000000e+00 -1.799200e-03 
-5.472900e-02 -6.538400e-04 1.799200e-03 
-5.498100e-02 0.000000e+00 1.799200e-03 
-5.472900e-02 -6.538400e-04 5.397600e-03 
-5.498100e-02 0.000000e+00 5.397600e-03 
-5.472900e-02 -6.538400e-04 8.996000e-03 
-5.498100e-02 0.000000e+00 8.996000e-03 
-5.472900e-02 -6.538400e-04 1.259400e-02 
-5.498100e-02 0.000000e+00 1.259400e-02 
-5.472900e-02 -6.538400e-04 1.619300e-02 
-5.498100e-02 0.000000e+00 1.619300e-02 
-5.472900e-02 -6.538400e-04 1.979100e-02 
-5.498100e-02 0.000000e+00 1.979100e-02 
-5.472900e-02 -6.538400e-04 2.339000e-02 
-5.498100e-02 0.000000e+00 2.339000e-02 
-5.472900e-02 -6.538400e-04 2.698800e-02 
-5.498100e-02 0.000000e+00 2.698800e-02 
-5.472900e-02 -6.538400e-04 3.058700e-02 
-5.498100e-02 0.000000e+00 3.058700e-02 
-5.472900e-02 -6.538400e-04 3.418500e-02 
-5.498100e-02 0.000000e+00 3.418500e-02 
-5.472900e-02 -6.538400e-04 3.778300e-02 
-5.498100e-02 0.000000e+00 3.778300e-02 
-5.472900e-02 -6.538400e-04 4.138200e-02 
-5.498100e-02 0.000000e+00 4.138200e-02 
-5.472900e-02 -6.213200e-05 4.498000e-02 
-5.475000e-02 0.000000e+00 4.498000e-02 
-5.472900e-02 0.000000e+00 4.500000e-02 
-5.108100e-02 0.000000e+00 -4.500000e-02 
-5.108100e-02 0.000000e+00 4.500000e-02 
-4.743200e-02 0.000000e+00 -4.500000e-02 
-4.743200e-02 0.000000e+00 4.500000e-02 
-4.378300e-02 0.000000e+00 -4.500000e-02 
-4.378300e-02 0.000000e+00 4.500000e-02 
-4.013500e-02 0.000000e+00 -4.500000e-02 
-4.013500e-02 0.000000e+00 4.500000e-02 
-3.648600e-02 0.000000e+00 -4.500000e-02 
-3.648600e-02 0.000000e+00 4.500000e-02 
-3.283700e-02 0.000000e+00 -4.500000e-02 
-3.283700e-02 0.000000e+00 4.500000e-02 
-2.918900e-02 0.000000e+00 -4.500000e-02 
-2.918900e-02 0.000000e+00 4.500000e-02 
-2.554000e-02 0.000000e+00 -4.500000e-02 
-2.554000e-02 0.000000e+00 4.500000e-02 
-2.189200e-02 0.000000e+00 -4.500000e-02 
-2.189200e-02 0.000000e+00 4.500000e-02 
-1.824300e-02 0.000000e+00 -4.500000e-02 
-1.824300e-02 0.000000e+00 4.500000e-02 
-1.459400e-02 0.000000e+00 -4.500000e-02 
-1.459400e-02 0.000000e+00 4.500000e-02 
-1.094600e-02 0.000000e+00 -4.500000e-02 
-1.094600e-02 0.000000e+00 4.500000e-02 
-7.297200e-03 0.000000e+00 -4.500000e-02 
-7.297200e-03 0.000000e+00 4.500000e-02 
-3.648600e-03 0.000000e+00 -4.500000e-02 
-3.648600e-03 0.000000e+00 4.500000e-02 
0.000000e+00 0.000000e+00 -4.500000e-02 
0.000000e+00 0.000000e+00 4.500000e-02 
3.648600e-03 0.000000e+00 -4.500000e-02 
3.648600e-03 0.000000e+00 4.500000e-02 
7.297200e-03 0.000000e+00 -4.500000e-02 
7.297200e-03 0.000000e+00 4.500000e-02 
1.094600e-02 0.000000e+00 -4.500000e-02 
1.094600e-02 0.000000e+00 4.500000e-02 
1.459400e-02 0.000000e+00 -4.500000e-02 
1.459400e-02 0.000000e+00 4.500000e-02 
1.824300e-02 0.000000e+00 -4.500000e-02 
1.824300e-02 0.000000e+00 4.500000e-02 
2.189200e-02 0.000000e+00 -4.500000e-02 
2.189200e-02 0.000000e+00 4.500000e-02 
2.554000e-02 0.000000e+00 -4.500000e-02 
2.554000e-02 0.000000e+00 4.500000e-02 
2.918900e-02 0.000000e+00 -4.500000e-02 
2.918900e-02 0.000000e+00 4.500000e-02 
3.283700e-02 0.000000e+00 -4.500000e-02 
3.283700e-02 0.000000e+00 4.500000e-02 
3.648600e-02 0.000000e+00 -4.500000e-02 
3.648600e-02 0.000000e+00 4.500000e-02 
4.013500e-02 0.000000e+00 -4.500000e-02 
4.013500e-02 0.000000e+00 4.500000e-02 
4.378300e-02 0.000000e+00 -4.500000e-02 
4.378300e-02 0.000000e+00 4.500000e-02 
4.743200e-02 0.000000e+00 -4.500000e-02 
4.743200e-02 0.000000e+00 4.500000e-02 
5.108100e-02 0.000000e+00 -4.500000e-02 
5.108100e-02 0.000000e+00 4.500000e-02 
5.472900e-02 -6.213200e-05 -4.498000e-02 
5.472900e-02 0.000000e+00 -4.500000e-02 
5.472900e-02 -6.538200e-04 -4.138200e-02 
5.472900e-02 -6.538200e-04 -3.778300e-02 
5.472900e-02 -6.538200e-04 -3.418500e-02 
5.472900e-02 -6.538200e-04 -3.058600e-02 
5.472900e-02 -6.538200e-04 -2.698800e-02 
5.472900e-02 -6.538200e-04 -2.339000e-02 
5.472900e-02 -6.538200e-04 -1.979100e-02 
5.472900e-02 -6.538200e-04 -1.619300e-02 
5.472900e-02 -6.538200e-04 -1.259400e-02 
5.472900e-02 -6.538200e-04 -8.996000e-03 
5.472900e-02 -6.538200e-04 -5.397600e-03 
5.472900e-02 -6.538200e-04 -1.799200e-03 
5.472900e-02 -6.538200e-04 1.799200e-03 
5.472900e-02 -6.538200e-04 5.397600e-03 
5.472900e-02 -6.538200e-04 8.996000e-03 
5.472900e-02 -6.538200e-04 1.259400e-02 
5.472900e-02 -6.538200e-04 1.619300e-02 
5.472900e-02 -6.538200e-04 1.979100e-02 
5.472900e-02 -6.538200e-04 2.339000e-02 
5.472900e-02 -6.538200e-04 2.698800e-02 
5.472900e-02 -6.538200e-04 3.058700e-02 
5.472900e-02 -6.538200e-04 3.418500e-02 
5.472900e-02 -6.538200e-04 3.778300e-02 
5.472900e-02 -6.538200e-04 4.138200e-02 
5.472900e-02 -6.213200e-05 4.498000e-02 
5.472900e-02 0.000000e+00 4.500000e-02 
5.475000e-02 0.000000e+00 -4.498000e-02 
5.498100e-02 0.000000e+00 -4.138200e-02 
5.498100e-02 0.000000e+00 -3.778300e-02 
5.498100e-02 0.000000e+00 -3.418500e-02 
5.498100e-02 0.000000e+00 -3.058600e-02 
5.498100e-02 0.000000e+00 -2.698800e-02 
5.498100e-02 0.000000e+00 -2.339000e-02 
5.498100e-02 0.000000e+00 -1.979100e-02 
5.498100e-02 0.000000e+00 -1.619300e-02 
5.498100e-02 0.000000e+00 -1.259400e-02 
5.498100e-02 0.000000e+00 -8.996000e-03 
5.498100e-02 0.000000e+00 -5.397600e-03 
5.498100e-02 0.000000e+00 -1.799200e-03 
5.498100e-02 0.000000e+00 1.799200e-03 
5.498100e-02 0.000000e+00 5.397600e-03 
5.498100e-02 0.000000e+00 8.996000e-03 
5.498100e-02 0.000000e+00 1.259400e-02 
5.498100e-02 0.000000e+00 1.619300e-02 
5.498100e-02 0.000000e+00 1.979100e-02 
5.498100e-02 0.000000e+00 2.339000e-02 
5.498100e-02 0.000000e+00 2.698800e-02 
5.498100e-02 0.000000e+00 3.058700e-02 
5.498100e-02 0.000000e+00 3.418500e-02 
5.498100e-02 0.000000e+00 3.778300e-02 
5.498100e-02 0.000000e+00 4.138200e-02 
5.475000e-02 0.000000e+00 4.498000e-02 
-5.472900e-02 6.213200e-05 -4.498000e-02 
-5.472900e-02 6.538400e-04 -4.138200e-02 
-5.472900e-02 6.538400e-04 -3.778300e-02 
-5.472900e-02 6.538400e-04 -3.418500e-02 
-5.472900e-02 6.538400e-04 -3.058600e-02 
-5.472900e-02 6.538400e-04 -2.698800e-02 
-5.472900e-02 6.538400e-04 -2.339000e-02 
-5.472900e-02 6.538400e-04 -1.979100e-02 
-5.472900e-02 6.538400e-04 -1.619300e-02 
-5.472900e-02 6.538400e-04 -1.259400e-02 
-5.472900e-02 6.538400e-04 -8.996000e-03 
-5.472900e-02 6.538400e-04 -5.397600e-03 
-5.472900e-02 6.538400e-04 -1.799200e-03 
-5.472900e-02 6.538400e-04 1.799200e-03 
-5.472900e-02 6.538400e-04 5.397600e-03 
-5.472900e-02 6.538400e-04 8.996000e-03 
-5.472900e-02 6.538400e-04 1.259400e-02 
-5.472900e-02 6.538400e-04 1.619300e-02 
-5.472900e-02 6.538400e-04 1.979100e-02 
-5.472900e-02 6.538400e-04 2.339000e-02 
-5.472900e-02 6.538400e-04 2.698800e-02 
-5.472900e-02 6.538400e-04 3.058700e-02 
-5.472900e-02 6.538400e-04 3.418500e-02 
-5.472900e-02 6.538400e-04 3.778300e-02 
-5.472900e-02 6.538400e-04 4.138200e-02 
-5.472900e-02 6.213200e-05 4.498000e-02 
-5.114300e-02 3.648600e-03 -4.498000e-02 
-5.108100e-02 3.648600e-03 -4.500000e-02 
