# .PCD v.6 - Point Cloud Data file format
FIELDS x y z 
SIZE 4 4 4 
TYPE F F F 
COUNT 1 1 1 
WIDTH 1142
HEIGHT 1
POINTS 1142
DATA ascii
3.840700e-02 -2.500000e-02 -8.065000e-03 
3.840700e-02 -2.500000e-02 -4.839000e-03 
3.840700e-02 -2.500000e-02 -1.613000e-03 
3.840700e-02 -2.500000e-02 1.613000e-03 
3.840700e-02 -2.500000e-02 4.839000e-03 
3.840700e-02 -2.500000e-02 8.065000e-03 
3.840700e-02 -2.500000e-02 1.129100e-02 
3.840700e-02 -2.500000e-02 1.451700e-02 
3.840700e-02 -2.500000e-02 1.774300e-02 
3.840700e-02 -2.500000e-02 2.096900e-02 
3.840700e-02 -2.500000e-02 2.419500e-02 
3.840700e-02 -2.500000e-02 2.742100e-02 
3.840700e-02 -2.500000e-02 3.064700e-02 
3.840700e-02 -2.500000e-02 3.387300e-02 
3.840700e-02 -2.500000e-02 3.709900e-02 
3.840700e-02 -2.500000e-02 4.032500e-02 
3.840700e-02 -2.500000e-02 4.355100e-02 
3.840700e-02 -2.500000e-02 4.677700e-02 
3.840700e-02 -2.500000e-02 5.000300e-02 
3.840700e-02 -2.500000e-02 5.322900e-02 
3.840700e-02 -2.500000e-02 5.645500e-02 
3.840700e-02 -2.482600e-02 5.968100e-02 
3.840700e-02 -2.448700e-02 6.000000e-02 
4.160800e-02 -2.448700e-02 -6.000000e-02 
4.160800e-02 -2.482600e-02 -5.968100e-02 
4.160800e-02 -2.500000e-02 -5.645500e-02 
4.160800e-02 -2.500000e-02 -5.322900e-02 
4.160800e-02 -2.500000e-02 -5.000300e-02 
4.160800e-02 -2.500000e-02 -4.677700e-02 
4.160800e-02 -2.500000e-02 -4.355100e-02 
4.160800e-02 -2.500000e-02 -4.032500e-02 
4.160800e-02 -2.500000e-02 -3.709900e-02 
4.160800e-02 -2.500000e-02 -3.387300e-02 
4.160800e-02 -2.500000e-02 -3.064700e-02 
4.160800e-02 -2.500000e-02 -2.742100e-02 
4.160800e-02 -2.500000e-02 -2.419500e-02 
4.160800e-02 -2.500000e-02 -2.096900e-02 
4.160800e-02 -2.500000e-02 -1.774300e-02 
4.160800e-02 -2.500000e-02 -1.451700e-02 
4.160800e-02 -2.500000e-02 -1.129100e-02 
4.160800e-02 -2.500000e-02 -8.065000e-03 
4.160800e-02 -2.500000e-02 -4.839000e-03 
4.160800e-02 -2.500000e-02 -1.613000e-03 
4.160800e-02 -2.500000e-02 1.613000e-03 
4.160800e-02 -2.500000e-02 4.839000e-03 
4.160800e-02 -2.500000e-02 8.065000e-03 
4.160800e-02 -2.500000e-02 1.129100e-02 
4.160800e-02 -2.500000e-02 1.451700e-02 
4.160800e-02 -2.500000e-02 1.774300e-02 
4.160800e-02 -2.500000e-02 2.096900e-02 
4.160800e-02 -2.500000e-02 2.419500e-02 
4.160800e-02 -2.500000e-02 2.742100e-02 
4.160800e-02 -2.500000e-02 3.064700e-02 
4.160800e-02 -2.500000e-02 3.387300e-02 
4.160800e-02 -2.500000e-02 3.709900e-02 
4.160800e-02 -2.500000e-02 4.032500e-02 
4.160800e-02 -2.500000e-02 4.355100e-02 
4.160800e-02 -2.500000e-02 4.677700e-02 
4.160800e-02 -2.500000e-02 5.000300e-02 
4.160800e-02 -2.500000e-02 5.322900e-02 
4.160800e-02 -2.500000e-02 5.645500e-02 
4.160800e-02 -2.482600e-02 5.968100e-02 
4.160800e-02 -2.448700e-02 6.000000e-02 
4.480800e-02 -2.448700e-02 -5.988100e-02 
4.480800e-02 -2.469900e-02 -5.968100e-02 
4.480800e-02 -2.469900e-02 -5.645500e-02 
4.480800e-02 -2.469900e-02 -5.322900e-02 
4.480800e-02 -2.469900e-02 -5.000300e-02 
4.480800e-02 -2.469900e-02 -4.677700e-02 
4.480800e-02 -2.469900e-02 -4.355100e-02 
4.480800e-02 -2.469900e-02 -4.032500e-02 
4.480800e-02 -2.469900e-02 -3.709900e-02 
4.480800e-02 -2.469900e-02 -3.387300e-02 
4.480800e-02 -2.469900e-02 -3.064700e-02 
4.480800e-02 -2.469900e-02 -2.742100e-02 
4.480800e-02 -2.469900e-02 -2.419500e-02 
4.480800e-02 -2.469900e-02 -2.096900e-02 
4.480800e-02 -2.469900e-02 -1.774300e-02 
4.480800e-02 -2.469900e-02 -1.451700e-02 
4.480800e-02 -2.469900e-02 -1.129100e-02 
4.480800e-02 -2.469900e-02 -8.065000e-03 
4.480800e-02 -2.469900e-02 -4.839000e-03 
4.480800e-02 -2.469900e-02 -1.613000e-03 
4.480800e-02 -2.469900e-02 1.613000e-03 
4.480800e-02 -2.469900e-02 4.839000e-03 
4.480800e-02 -2.469900e-02 8.065000e-03 
4.480800e-02 -2.469900e-02 1.129100e-02 
4.480800e-02 -2.469900e-02 1.451700e-02 
4.480800e-02 -2.469900e-02 1.774300e-02 
4.480800e-02 -2.469900e-02 2.096900e-02 
4.480800e-02 -2.469900e-02 2.419500e-02 
4.480800e-02 -2.469900e-02 2.742100e-02 
4.480800e-02 -2.469900e-02 3.064700e-02 
4.480800e-02 -2.469900e-02 3.387300e-02 
4.480800e-02 -2.469900e-02 3.709900e-02 
4.480800e-02 -2.469900e-02 4.032500e-02 
4.480800e-02 -2.469900e-02 4.355100e-02 
4.480800e-02 -2.469900e-02 4.677700e-02 
4.480800e-02 -2.469900e-02 5.000300e-02 
4.480800e-02 -2.469900e-02 5.322900e-02 
4.480800e-02 -2.469900e-02 5.645500e-02 
4.480800e-02 -2.469900e-02 5.968100e-02 
4.480800e-02 -2.448700e-02 5.988100e-02 
4.500000e-02 -2.448700e-02 -5.968100e-02 
4.500000e-02 -2.448700e-02 -5.645500e-02 
4.500000e-02 -2.448700e-02 -5.322900e-02 
4.500000e-02 -2.448700e-02 -5.000300e-02 
4.500000e-02 -2.448700e-02 -4.677700e-02 
4.500000e-02 -2.448700e-02 -4.355100e-02 
4.500000e-02 -2.448700e-02 -4.032500e-02 
4.500000e-02 -2.448700e-02 -3.709900e-02 
4.500000e-02 -2.448700e-02 -3.387300e-02 
4.500000e-02 -2.448700e-02 -3.064700e-02 
4.500000e-02 -2.448700e-02 -2.742100e-02 
4.500000e-02 -2.448700e-02 -2.419500e-02 
4.500000e-02 -2.448700e-02 -2.096900e-02 
4.500000e-02 -2.448700e-02 -1.774300e-02 
4.500000e-02 -2.448700e-02 -1.451700e-02 
4.500000e-02 -2.448700e-02 -1.129100e-02 
4.500000e-02 -2.448700e-02 -8.065000e-03 
4.500000e-02 -2.448700e-02 -4.839000e-03 
4.500000e-02 -2.448700e-02 -1.613000e-03 
4.500000e-02 -2.448700e-02 1.613000e-03 
4.500000e-02 -2.448700e-02 4.839000e-03 
4.500000e-02 -2.448700e-02 8.065000e-03 
4.500000e-02 -2.448700e-02 1.129100e-02 
4.500000e-02 -2.448700e-02 1.451700e-02 
4.500000e-02 -2.448700e-02 1.774300e-02 
4.500000e-02 -2.448700e-02 2.096900e-02 
4.500000e-02 -2.448700e-02 2.419500e-02 
4.500000e-02 -2.448700e-02 2.742100e-02 
4.500000e-02 -2.448700e-02 3.064700e-02 
4.500000e-02 -2.448700e-02 3.387300e-02 
4.500000e-02 -2.448700e-02 3.709900e-02 
4.500000e-02 -2.448700e-02 4.032500e-02 
4.500000e-02 -2.448700e-02 4.355100e-02 
4.500000e-02 -2.448700e-02 4.677700e-02 
4.500000e-02 -2.448700e-02 5.000300e-02 
4.500000e-02 -2.448700e-02 5.322900e-02 
4.500000e-02 -2.448700e-02 5.645500e-02 
4.500000e-02 -2.448700e-02 5.968100e-02 
-4.480800e-02 -2.122200e-02 -5.988100e-02 
-4.500000e-02 -2.122200e-02 -5.968100e-02 
-4.500000e-02 -2.122200e-02 -5.645500e-02 
-4.500000e-02 -2.122200e-02 -5.322900e-02 
-4.500000e-02 -2.122200e-02 -5.000300e-02 
-4.500000e-02 -2.122200e-02 -4.677700e-02 
-4.500000e-02 -2.122200e-02 -4.355100e-02 
-4.500000e-02 -2.122200e-02 -4.032500e-02 
-4.500000e-02 -2.122200e-02 -3.709900e-02 
-4.500000e-02 -2.122200e-02 -3.387300e-02 
-4.500000e-02 -2.122200e-02 -3.064700e-02 
-4.500000e-02 -2.122200e-02 -2.742100e-02 
-4.500000e-02 -2.122200e-02 -2.419500e-02 
-4.500000e-02 -2.122200e-02 -2.096900e-02 
-4.500000e-02 -2.122200e-02 -1.774300e-02 
-4.500000e-02 -2.122200e-02 -1.451700e-02 
-4.500000e-02 -2.122200e-02 -1.129100e-02 
-4.500000e-02 -2.122200e-02 -8.065000e-03 
-4.500000e-02 -2.122200e-02 -4.839000e-03 
-4.500000e-02 -2.122200e-02 -1.613000e-03 
-4.500000e-02 -2.122200e-02 1.613000e-03 
-4.500000e-02 -2.122200e-02 4.839000e-03 
-4.500000e-02 -2.122200e-02 8.065000e-03 
-4.500000e-02 -2.122200e-02 1.129100e-02 
-4.500000e-02 -2.122200e-02 1.451700e-02 
-4.500000e-02 -2.122200e-02 1.774300e-02 
-4.500000e-02 -2.122200e-02 2.096900e-02 
-4.500000e-02 -2.122200e-02 2.419500e-02 
-4.500000e-02 -2.122200e-02 2.742100e-02 
-4.500000e-02 -2.122200e-02 3.064700e-02 
-4.500000e-02 -2.122200e-02 3.387300e-02 
-4.500000e-02 -2.122200e-02 3.709900e-02 
-4.500000e-02 -2.122200e-02 4.032500e-02 
-4.500000e-02 -2.122200e-02 4.355100e-02 
-4.500000e-02 -2.122200e-02 4.677700e-02 
-4.500000e-02 -2.122200e-02 5.000300e-02 
-4.500000e-02 -2.122200e-02 5.322900e-02 
-4.500000e-02 -2.122200e-02 5.645500e-02 
-4.500000e-02 -2.122200e-02 5.968100e-02 
-4.480800e-02 -2.122200e-02 5.988100e-02 
-4.160800e-02 -2.122200e-02 -6.000000e-02 
-4.160800e-02 -2.122200e-02 6.000000e-02 
-3.840700e-02 -2.122200e-02 -6.000000e-02 
-3.840700e-02 -2.122200e-02 6.000000e-02 
-3.520700e-02 -2.122200e-02 -6.000000e-02 
-3.520700e-02 -2.122200e-02 6.000000e-02 
-3.200600e-02 -2.122200e-02 -6.000000e-02 
-3.200600e-02 -2.122200e-02 6.000000e-02 
-2.880500e-02 -2.122200e-02 -6.000000e-02 
-2.880500e-02 -2.122200e-02 6.000000e-02 
-2.560500e-02 -2.122200e-02 -6.000000e-02 
-2.560500e-02 -2.122200e-02 6.000000e-02 
-2.240400e-02 -2.122200e-02 -6.000000e-02 
-2.240400e-02 -2.122200e-02 6.000000e-02 
-1.920400e-02 -2.122200e-02 -6.000000e-02 
-1.920400e-02 -2.122200e-02 6.000000e-02 
-1.600300e-02 -2.122200e-02 -6.000000e-02 
-1.600300e-02 -2.122200e-02 6.000000e-02 
-1.280200e-02 -2.122200e-02 -6.000000e-02 
-1.280200e-02 -2.122200e-02 6.000000e-02 
-9.601800e-03 -2.122200e-02 -6.000000e-02 
-9.601800e-03 -2.122200e-02 6.000000e-02 
-6.401200e-03 -2.122200e-02 -6.000000e-02 
-6.401200e-03 -2.122200e-02 6.000000e-02 
-3.200600e-03 -2.122200e-02 -6.000000e-02 
-3.200600e-03 -2.122200e-02 6.000000e-02 
0.000000e+00 -2.122200e-02 -6.000000e-02 
0.000000e+00 -2.122200e-02 6.000000e-02 
3.200600e-03 -2.122200e-02 -6.000000e-02 
3.200600e-03 -2.122200e-02 6.000000e-02 
6.401200e-03 -2.122200e-02 -6.000000e-02 
6.401200e-03 -2.122200e-02 6.000000e-02 
9.601800e-03 -2.122200e-02 -6.000000e-02 
9.601800e-03 -2.122200e-02 6.000000e-02 
1.280200e-02 -2.122200e-02 -6.000000e-02 
1.280200e-02 -2.122200e-02 6.000000e-02 
1.600300e-02 -2.122200e-02 -6.000000e-02 
1.600300e-02 -2.122200e-02 6.000000e-02 
1.920400e-02 -2.122200e-02 -6.000000e-02 
1.920400e-02 -2.122200e-02 6.000000e-02 
2.240400e-02 -2.122200e-02 -6.000000e-02 
2.240400e-02 -2.122200e-02 6.000000e-02 
2.560500e-02 -2.122200e-02 -6.000000e-02 
2.560500e-02 -2.122200e-02 6.000000e-02 
2.880500e-02 -2.122200e-02 -6.000000e-02 
2.880500e-02 -2.122200e-02 6.000000e-02 
3.200600e-02 -2.122200e-02 -6.000000e-02 
3.200600e-02 -2.122200e-02 6.000000e-02 
3.520700e-02 -2.122200e-02 -6.000000e-02 
3.520700e-02 -2.122200e-02 6.000000e-02 
3.840700e-02 -2.122200e-02 -6.000000e-02 
3.840700e-02 -2.122200e-02 6.000000e-02 
4.160800e-02 -2.122200e-02 -6.000000e-02 
4.160800e-02 -2.122200e-02 6.000000e-02 
4.480800e-02 -2.122200e-02 -5.988100e-02 
4.480800e-02 -2.122200e-02 5.988100e-02 
4.500000e-02 -2.122200e-02 -5.968100e-02 
4.500000e-02 -2.122200e-02 -5.645500e-02 
4.500000e-02 -2.122200e-02 -5.322900e-02 
4.500000e-02 -2.122200e-02 -5.000300e-02 
4.500000e-02 -2.122200e-02 -4.677700e-02 
4.500000e-02 -2.122200e-02 -4.355100e-02 
4.500000e-02 -2.122200e-02 -4.032500e-02 
4.500000e-02 -2.122200e-02 -3.709900e-02 
4.500000e-02 -2.122200e-02 -3.387300e-02 
4.500000e-02 -2.122200e-02 -3.064700e-02 
4.500000e-02 -2.122200e-02 -2.742100e-02 
4.500000e-02 -2.122200e-02 -2.419500e-02 
4.500000e-02 -2.122200e-02 -2.096900e-02 
4.500000e-02 -2.122200e-02 -1.774300e-02 
4.500000e-02 -2.122200e-02 -1.451700e-02 
4.500000e-02 -2.122200e-02 -1.129100e-02 
4.500000e-02 -2.122200e-02 -8.065000e-03 
4.500000e-02 -2.122200e-02 -4.839000e-03 
4.500000e-02 -2.122200e-02 -1.613000e-03 
4.500000e-02 -2.122200e-02 1.613000e-03 
4.500000e-02 -2.122200e-02 4.839000e-03 
4.500000e-02 -2.122200e-02 8.065000e-03 
4.500000e-02 -2.122200e-02 1.129100e-02 
4.500000e-02 -2.122200e-02 1.451700e-02 
4.500000e-02 -2.122200e-02 1.774300e-02 
4.500000e-02 -2.122200e-02 2.096900e-02 
4.500000e-02 -2.122200e-02 2.419500e-02 
4.500000e-02 -2.122200e-02 2.742100e-02 
4.500000e-02 -2.122200e-02 3.064700e-02 
4.500000e-02 -2.122200e-02 3.387300e-02 
4.500000e-02 -2.122200e-02 3.709900e-02 
4.500000e-02 -2.122200e-02 4.032500e-02 
4.500000e-02 -2.122200e-02 4.355100e-02 
4.500000e-02 -2.122200e-02 4.677700e-02 
4.500000e-02 -2.122200e-02 5.000300e-02 
4.500000e-02 -2.122200e-02 5.322900e-02 
4.500000e-02 -2.122200e-02 5.645500e-02 
4.500000e-02 -2.122200e-02 5.968100e-02 
-4.480800e-02 -1.795700e-02 -5.988100e-02 
-4.500000e-02 -1.795700e-02 -5.968100e-02 
-4.500000e-02 -1.795700e-02 -5.645500e-02 
-4.500000e-02 -1.795700e-02 -5.322900e-02 
-4.500000e-02 -1.795700e-02 -5.000300e-02 
-4.500000e-02 -1.795700e-02 -4.677700e-02 
-4.500000e-02 -1.795700e-02 -4.355100e-02 
-4.500000e-02 -1.795700e-02 -4.032500e-02 
-4.500000e-02 -1.795700e-02 -3.709900e-02 
-4.500000e-02 -1.795700e-02 -3.387300e-02 
-4.500000e-02 -1.795700e-02 -3.064700e-02 
-4.500000e-02 -1.795700e-02 -2.742100e-02 
-4.500000e-02 -1.795700e-02 -2.419500e-02 
-4.500000e-02 -1.795700e-02 -2.096900e-02 
-4.500000e-02 -1.795700e-02 -1.774300e-02 
-4.500000e-02 -1.795700e-02 -1.451700e-02 
-4.500000e-02 -1.795700e-02 -1.129100e-02 
-4.500000e-02 -1.795700e-02 -8.065000e-03 
-4.500000e-02 -1.795700e-02 -4.839000e-03 
-4.500000e-02 -1.795700e-02 -1.613000e-03 
-4.500000e-02 -1.795700e-02 1.613000e-03 
-4.500000e-02 -1.795700e-02 4.839000e-03 
-4.500000e-02 -1.795700e-02 8.065000e-03 
-4.500000e-02 -1.795700e-02 1.129100e-02 
-4.500000e-02 -1.795700e-02 1.451700e-02 
-4.500000e-02 -1.795700e-02 1.774300e-02 
-4.500000e-02 -1.795700e-02 2.096900e-02 
-4.500000e-02 -1.795700e-02 2.419500e-02 
-4.500000e-02 -1.795700e-02 2.742100e-02 
-4.500000e-02 -1.795700e-02 3.064700e-02 
-4.500000e-02 -1.795700e-02 3.387300e-02 
-4.500000e-02 -1.795700e-02 3.709900e-02 
-4.500000e-02 -1.795700e-02 4.032500e-02 
-4.500000e-02 -1.795700e-02 4.355100e-02 
-4.500000e-02 -1.795700e-02 4.677700e-02 
-4.500000e-02 -1.795700e-02 5.000300e-02 
-4.500000e-02 -1.795700e-02 5.322900e-02 
-4.500000e-02 -1.795700e-02 5.645500e-02 
-4.500000e-02 -1.795700e-02 5.968100e-02 
-4.480800e-02 -1.795700e-02 5.988100e-02 
-4.160800e-02 -1.795700e-02 -6.000000e-02 
-4.160800e-02 -1.795700e-02 6.000000e-02 
-3.840700e-02 -1.795700e-02 -6.000000e-02 
-3.840700e-02 -1.795700e-02 6.000000e-02 
-3.520700e-02 -1.795700e-02 -6.000000e-02 
-3.520700e-02 -1.795700e-02 6.000000e-02 
-3.200600e-02 -1.795700e-02 -6.000000e-02 
-3.200600e-02 -1.795700e-02 6.000000e-02 
-2.880500e-02 -1.795700e-02 -6.000000e-02 
-2.880500e-02 -1.795700e-02 6.000000e-02 
-2.560500e-02 -1.795700e-02 -6.000000e-02 
-2.560500e-02 -1.795700e-02 6.000000e-02 
-2.240400e-02 -1.795700e-02 -6.000000e-02 
-2.240400e-02 -1.795700e-02 6.000000e-02 
-1.920400e-02 -1.795700e-02 -6.000000e-02 
-1.920400e-02 -1.795700e-02 6.000000e-02 
-1.600300e-02 -1.795700e-02 -6.000000e-02 
-1.600300e-02 -1.795700e-02 6.000000e-02 
-1.280200e-02 -1.795700e-02 -6.000000e-02 
-1.280200e-02 -1.795700e-02 6.000000e-02 
-9.601800e-03 -1.795700e-02 -6.000000e-02 
-9.601800e-03 -1.795700e-02 6.000000e-02 
-6.401200e-03 -1.795700e-02 -6.000000e-02 
-6.401200e-03 -1.795700e-02 6.000000e-02 
-3.200600e-03 -1.795700e-02 -6.000000e-02 
-3.200600e-03 -1.795700e-02 6.000000e-02 
0.000000e+00 -1.795700e-02 -6.000000e-02 
0.000000e+00 -1.795700e-02 6.000000e-02 
3.200600e-03 -1.795700e-02 -6.000000e-02 
3.200600e-03 -1.795700e-02 6.000000e-02 
6.401200e-03 -1.795700e-02 -6.000000e-02 
6.401200e-03 -1.795700e-02 6.000000e-02 
9.601800e-03 -1.795700e-02 -6.000000e-02 
9.601800e-03 -1.795700e-02 6.000000e-02 
1.280200e-02 -1.795700e-02 -6.000000e-02 
1.280200e-02 -1.795700e-02 6.000000e-02 
1.600300e-02 -1.795700e-02 -6.000000e-02 
1.600300e-02 -1.795700e-02 6.000000e-02 
1.920400e-02 -1.795700e-02 -6.000000e-02 
1.920400e-02 -1.795700e-02 6.000000e-02 
2.240400e-02 -1.795700e-02 -6.000000e-02 
2.240400e-02 -1.795700e-02 6.000000e-02 
2.560500e-02 -1.795700e-02 -6.000000e-02 
2.560500e-02 -1.795700e-02 6.000000e-02 
2.880500e-02 -1.795700e-02 -6.000000e-02 
2.880500e-02 -1.795700e-02 6.000000e-02 
3.200600e-02 -1.795700e-02 -6.000000e-02 
3.200600e-02 -1.795700e-02 6.000000e-02 
3.520700e-02 -1.795700e-02 -6.000000e-02 
3.520700e-02 -1.795700e-02 6.000000e-02 
3.840700e-02 -1.795700e-02 -6.000000e-02 
3.840700e-02 -1.795700e-02 6.000000e-02 
4.160800e-02 -1.795700e-02 -6.000000e-02 
4.160800e-02 -1.795700e-02 6.000000e-02 
4.480800e-02 -1.795700e-02 -5.988100e-02 
4.480800e-02 -1.795700e-02 5.988100e-02 
4.500000e-02 -1.795700e-02 -5.968100e-02 
4.500000e-02 -1.795700e-02 -5.645500e-02 
4.500000e-02 -1.795700e-02 -5.322900e-02 
4.500000e-02 -1.795700e-02 -5.000300e-02 
4.500000e-02 -1.795700e-02 -4.677700e-02 
4.500000e-02 -1.795700e-02 -4.355100e-02 
4.500000e-02 -1.795700e-02 -4.032500e-02 
4.500000e-02 -1.795700e-02 -3.709900e-02 
4.500000e-02 -1.795700e-02 -3.387300e-02 
4.500000e-02 -1.795700e-02 -3.064700e-02 
4.500000e-02 -1.795700e-02 -2.742100e-02 
4.500000e-02 -1.795700e-02 -2.419500e-02 
4.500000e-02 -1.795700e-02 -2.096900e-02 
4.500000e-02 -1.795700e-02 -1.774300e-02 
4.500000e-02 -1.795700e-02 -1.451700e-02 
4.500000e-02 -1.795700e-02 -1.129100e-02 
4.500000e-02 -1.795700e-02 -8.065000e-03 
4.500000e-02 -1.795700e-02 -4.839000e-03 
4.500000e-02 -1.795700e-02 -1.613000e-03 
4.500000e-02 -1.795700e-02 1.613000e-03 
4.500000e-02 -1.795700e-02 4.839000e-03 
4.500000e-02 -1.795700e-02 8.065000e-03 
4.500000e-02 -1.795700e-02 1.129100e-02 
4.500000e-02 -1.795700e-02 1.451700e-02 
4.500000e-02 -1.795700e-02 1.774300e-02 
4.500000e-02 -1.795700e-02 2.096900e-02 
4.500000e-02 -1.795700e-02 2.419500e-02 
4.500000e-02 -1.795700e-02 2.742100e-02 
4.500000e-02 -1.795700e-02 3.064700e-02 
4.500000e-02 -1.795700e-02 3.387300e-02 
4.500000e-02 -1.795700e-02 3.709900e-02 
4.500000e-02 -1.795700e-02 4.032500e-02 
4.500000e-02 -1.795700e-02 4.355100e-02 
4.500000e-02 -1.795700e-02 4.677700e-02 
4.500000e-02 -1.795700e-02 5.000300e-02 
4.500000e-02 -1.795700e-02 5.322900e-02 
4.500000e-02 -1.795700e-02 5.645500e-02 
4.500000e-02 -1.795700e-02 5.968100e-02 
-4.480800e-02 -1.469200e-02 -5.988100e-02 
-4.500000e-02 -1.469200e-02 -5.968100e-02 
-4.500000e-02 -1.469200e-02 -5.645500e-02 
-4.500000e-02 -1.469200e-02 -5.322900e-02 
-4.500000e-02 -1.469200e-02 -5.000300e-02 
-4.500000e-02 -1.469200e-02 -4.677700e-02 
-4.500000e-02 -1.469200e-02 -4.355100e-02 
-4.500000e-02 -1.469200e-02 -4.032500e-02 
-4.500000e-02 -1.469200e-02 -3.709900e-02 
-4.500000e-02 -1.469200e-02 -3.387300e-02 
-4.500000e-02 -1.469200e-02 -3.064700e-02 
-4.500000e-02 -1.469200e-02 -2.742100e-02 
-4.500000e-02 -1.469200e-02 -2.419500e-02 
-4.500000e-02 -1.469200e-02 -2.096900e-02 
-4.500000e-02 -1.469200e-02 -1.774300e-02 
-4.500000e-02 -1.469200e-02 -1.451700e-02 
-4.500000e-02 -1.469200e-02 -1.129100e-02 
-4.500000e-02 -1.469200e-02 -8.065000e-03 
-4.500000e-02 -1.469200e-02 -4.839000e-03 
-4.500000e-02 -1.469200e-02 -1.613000e-03 
-4.500000e-02 -1.469200e-02 1.613000e-03 
-4.500000e-02 -1.469200e-02 4.839000e-03 
-4.500000e-02 -1.469200e-02 8.065000e-03 
-4.500000e-02 -1.469200e-02 1.129100e-02 
-4.500000e-02 -1.469200e-02 1.451700e-02 
-4.500000e-02 -1.469200e-02 1.774300e-02 
-4.500000e-02 -1.469200e-02 2.096900e-02 
-4.500000e-02 -1.469200e-02 2.419500e-02 
-4.500000e-02 -1.469200e-02 2.742100e-02 
-4.500000e-02 -1.469200e-02 3.064700e-02 
-4.500000e-02 -1.469200e-02 3.387300e-02 
-4.500000e-02 -1.469200e-02 3.709900e-02 
-4.500000e-02 -1.469200e-02 4.032500e-02 
-4.500000e-02 -1.469200e-02 4.355100e-02 
-4.500000e-02 -1.469200e-02 4.677700e-02 
-4.500000e-02 -1.469200e-02 5.000300e-02 
-4.500000e-02 -1.469200e-02 5.322900e-02 
-4.500000e-02 -1.469200e-02 5.645500e-02 
-4.500000e-02 -1.469200e-02 5.968100e-02 
-4.480800e-02 -1.469200e-02 5.988100e-02 
-4.160800e-02 -1.469200e-02 -6.000000e-02 
-4.160800e-02 -1.469200e-02 6.000000e-02 
-3.840700e-02 -1.469200e-02 -6.000000e-02 
-3.840700e-02 -1.469200e-02 6.000000e-02 
-3.520700e-02 -1.469200e-02 -6.000000e-02 
-3.520700e-02 -1.469200e-02 6.000000e-02 
-3.200600e-02 -1.469200e-02 -6.000000e-02 
-3.200600e-02 -1.469200e-02 6.000000e-02 
-2.880500e-02 -1.469200e-02 -6.000000e-02 
-2.880500e-02 -1.469200e-02 6.000000e-02 
-2.560500e-02 -1.469200e-02 -6.000000e-02 
-2.560500e-02 -1.469200e-02 6.000000e-02 
-2.240400e-02 -1.469200e-02 -6.000000e-02 
-2.240400e-02 -1.469200e-02 6.000000e-02 
-1.920400e-02 -1.469200e-02 -6.000000e-02 
-1.920400e-02 -1.469200e-02 6.000000e-02 
-1.600300e-02 -1.469200e-02 -6.000000e-02 
-1.600300e-02 -1.469200e-02 6.000000e-02 
-1.280200e-02 -1.469200e-02 -6.000000e-02 
-1.280200e-02 -1.469200e-02 6.000000e-02 
-9.601800e-03 -1.469200e-02 -6.000000e-02 
-9.601800e-03 -1.469200e-02 6.000000e-02 
-6.401200e-03 -1.469200e-02 -6.000000e-02 
-6.401200e-03 -1.469200e-02 6.000000e-02 
-3.200600e-03 -1.469200e-02 -6.000000e-02 
-3.200600e-03 -1.469200e-02 6.000000e-02 
0.000000e+00 -1.469200e-02 -6.000000e-02 
0.000000e+00 -1.469200e-02 6.000000e-02 
3.200600e-03 -1.469200e-02 -6.000000e-02 
3.200600e-03 -1.469200e-02 6.000000e-02 
6.401200e-03 -1.469200e-02 -6.000000e-02 
6.401200e-03 -1.469200e-02 6.000000e-02 
9.601800e-03 -1.469200e-02 -6.000000e-02 
9.601800e-03 -1.469200e-02 6.000000e-02 
1.280200e-02 -1.469200e-02 -6.000000e-02 
1.280200e-02 -1.469200e-02 6.000000e-02 
1.600300e-02 -1.469200e-02 -6.000000e-02 
1.600300e-02 -1.469200e-02 6.000000e-02 
1.920400e-02 -1.469200e-02 -6.000000e-02 
1.920400e-02 -1.469200e-02 6.000000e-02 
2.240400e-02 -1.469200e-02 -6.000000e-02 
2.240400e-02 -1.469200e-02 6.000000e-02 
2.560500e-02 -1.469200e-02 -6.000000e-02 
2.560500e-02 -1.469200e-02 6.000000e-02 
2.880500e-02 -1.469200e-02 -6.000000e-02 
2.880500e-02 -1.469200e-02 6.000000e-02 
3.200600e-02 -1.469200e-02 -6.000000e-02 
3.200600e-02 -1.469200e-02 6.000000e-02 
3.520700e-02 -1.469200e-02 -6.000000e-02 
3.520700e-02 -1.469200e-02 6.000000e-02 
3.840700e-02 -1.469200e-02 -6.000000e-02 
3.840700e-02 -1.469200e-02 6.000000e-02 
4.160800e-02 -1.469200e-02 -6.000000e-02 
4.160800e-02 -1.469200e-02 6.000000e-02 
4.480800e-02 -1.469200e-02 -5.988100e-02 
4.480800e-02 -1.469200e-02 5.988100e-02 
4.500000e-02 -1.469200e-02 -5.968100e-02 
4.500000e-02 -1.469200e-02 -5.645500e-02 
4.500000e-02 -1.469200e-02 -5.322900e-02 
4.500000e-02 -1.469200e-02 -5.000300e-02 
4.500000e-02 -1.469200e-02 -4.677700e-02 
4.500000e-02 -1.469200e-02 -4.355100e-02 
4.500000e-02 -1.469200e-02 -4.032500e-02 
4.500000e-02 -1.469200e-02 -3.709900e-02 
4.500000e-02 -1.469200e-02 -3.387300e-02 
4.500000e-02 -1.469200e-02 -3.064700e-02 
4.500000e-02 -1.469200e-02 -2.742100e-02 
4.500000e-02 -1.469200e-02 -2.419500e-02 
4.500000e-02 -1.469200e-02 -2.096900e-02 
4.500000e-02 -1.469200e-02 -1.774300e-02 
4.500000e-02 -1.469200e-02 -1.451700e-02 
4.500000e-02 -1.469200e-02 -1.129100e-02 
4.500000e-02 -1.469200e-02 -8.065000e-03 
4.500000e-02 -1.469200e-02 -4.839000e-03 
4.500000e-02 -1.469200e-02 -1.613000e-03 
4.500000e-02 -1.469200e-02 1.613000e-03 
4.500000e-02 -1.469200e-02 4.839000e-03 
4.500000e-02 -1.469200e-02 8.065000e-03 
4.500000e-02 -1.469200e-02 1.129100e-02 
4.500000e-02 -1.469200e-02 1.451700e-02 
4.500000e-02 -1.469200e-02 1.774300e-02 
4.500000e-02 -1.469200e-02 2.096900e-02 
4.500000e-02 -1.469200e-02 2.419500e-02 
4.500000e-02 -1.469200e-02 2.742100e-02 
4.500000e-02 -1.469200e-02 3.064700e-02 
4.500000e-02 -1.469200e-02 3.387300e-02 
4.500000e-02 -1.469200e-02 3.709900e-02 
4.500000e-02 -1.469200e-02 4.032500e-02 
4.500000e-02 -1.469200e-02 4.355100e-02 
4.500000e-02 -1.469200e-02 4.677700e-02 
4.500000e-02 -1.469200e-02 5.000300e-02 
4.500000e-02 -1.469200e-02 5.322900e-02 
4.500000e-02 -1.469200e-02 5.645500e-02 
4.500000e-02 -1.469200e-02 5.968100e-02 
-4.480800e-02 -1.142700e-02 -5.988100e-02 
-4.500000e-02 -1.142700e-02 -5.968100e-02 
-4.500000e-02 -1.142700e-02 -5.645500e-02 
-4.500000e-02 -1.142700e-02 -5.322900e-02 
-4.500000e-02 -1.142700e-02 -5.000300e-02 
-4.500000e-02 -1.142700e-02 -4.677700e-02 
-4.500000e-02 -1.142700e-02 -4.355100e-02 
-4.500000e-02 -1.142700e-02 -4.032500e-02 
-4.500000e-02 -1.142700e-02 -3.709900e-02 
-4.500000e-02 -1.142700e-02 -3.387300e-02 
-4.500000e-02 -1.142700e-02 -3.064700e-02 
-4.500000e-02 -1.142700e-02 -2.742100e-02 
-4.500000e-02 -1.142700e-02 -2.419500e-02 
-4.500000e-02 -1.142700e-02 -2.096900e-02 
-4.500000e-02 -1.142700e-02 -1.774300e-02 
-4.500000e-02 -1.142700e-02 -1.451700e-02 
-4.500000e-02 -1.142700e-02 -1.129100e-02 
-4.500000e-02 -1.142700e-02 -8.065000e-03 
-4.500000e-02 -1.142700e-02 -4.839000e-03 
-4.500000e-02 -1.142700e-02 -1.613000e-03 
-4.500000e-02 -1.142700e-02 1.613000e-03 
-4.500000e-02 -1.142700e-02 4.839000e-03 
-4.500000e-02 -1.142700e-02 8.065000e-03 
-4.500000e-02 -1.142700e-02 1.129100e-02 
-4.500000e-02 -1.142700e-02 1.451700e-02 
-4.500000e-02 -1.142700e-02 1.774300e-02 
-4.500000e-02 -1.142700e-02 2.096900e-02 
-4.500000e-02 -1.142700e-02 2.419500e-02 
-4.500000e-02 -1.142700e-02 2.742100e-02 
-4.500000e-02 -1.142700e-02 3.064700e-02 
-4.500000e-02 -1.142700e-02 3.387300e-02 
-4.500000e-02 -1.142700e-02 3.709900e-02 
-4.500000e-02 -1.142700e-02 4.032500e-02 
-4.500000e-02 -1.142700e-02 4.355100e-02 
-4.500000e-02 -1.142700e-02 4.677700e-02 
-4.500000e-02 -1.142700e-02 5.000300e-02 
-4.500000e-02 -1.142700e-02 5.322900e-02 
-4.500000e-02 -1.142700e-02 5.645500e-02 
-4.500000e-02 -1.142700e-02 5.968100e-02 
-4.480800e-02 -1.142700e-02 5.988100e-02 
-4.160800e-02 -1.142700e-02 -6.000000e-02 
-4.160800e-02 -1.142700e-02 6.000000e-02 
-3.840700e-02 -1.142700e-02 -6.000000e-02 
-3.840700e-02 -1.142700e-02 6.000000e-02 
-3.520700e-02 -1.142700e-02 -6.000000e-02 
-3.520700e-02 -1.142700e-02 6.000000e-02 
-3.200600e-02 -1.142700e-02 -6.000000e-02 
-3.200600e-02 -1.142700e-02 6.000000e-02 
-2.880500e-02 -1.142700e-02 -6.000000e-02 
-2.880500e-02 -1.142700e-02 6.000000e-02 
-2.560500e-02 -1.142700e-02 -6.000000e-02 
-2.560500e-02 -1.142700e-02 6.000000e-02 
-2.240400e-02 -1.142700e-02 -6.000000e-02 
-2.240400e-02 -1.142700e-02 6.000000e-02 
-1.920400e-02 -1.142700e-02 -6.000000e-02 
-1.920400e-02 -1.142700e-02 6.000000e-02 
-1.600300e-02 -1.142700e-02 -6.000000e-02 
-1.600300e-02 -1.142700e-02 6.000000e-02 
-1.280200e-02 -1.142700e-02 -6.000000e-02 
-1.280200e-02 -1.142700e-02 6.000000e-02 
-9.601800e-03 -1.142700e-02 -6.000000e-02 
-9.601800e-03 -1.142700e-02 6.000000e-02 
-6.401200e-03 -1.142700e-02 -6.000000e-02 
-6.401200e-03 -1.142700e-02 6.000000e-02 
-3.200600e-03 -1.142700e-02 -6.000000e-02 
-3.200600e-03 -1.142700e-02 6.000000e-02 
0.000000e+00 -1.142700e-02 -6.000000e-02 
0.000000e+00 -1.142700e-02 6.000000e-02 
3.200600e-03 -1.142700e-02 -6.000000e-02 
3.200600e-03 -1.142700e-02 6.000000e-02 
6.401200e-03 -1.142700e-02 -6.000000e-02 
6.401200e-03 -1.142700e-02 6.000000e-02 
9.601800e-03 -1.142700e-02 -6.000000e-02 
9.601800e-03 -1.142700e-02 6.000000e-02 
1.280200e-02 -1.142700e-02 -6.000000e-02 
1.280200e-02 -1.142700e-02 6.000000e-02 
1.600300e-02 -1.142700e-02 -6.000000e-02 
1.600300e-02 -1.142700e-02 6.000000e-02 
1.920400e-02 -1.142700e-02 -6.000000e-02 
1.920400e-02 -1.142700e-02 6.000000e-02 
2.240400e-02 -1.142700e-02 -6.000000e-02 
2.240400e-02 -1.142700e-02 6.000000e-02 
2.560500e-02 -1.142700e-02 -6.000000e-02 
2.560500e-02 -1.142700e-02 6.000000e-02 
2.880500e-02 -1.142700e-02 -6.000000e-02 
2.880500e-02 -1.142700e-02 6.000000e-02 
3.200600e-02 -1.142700e-02 -6.000000e-02 
3.200600e-02 -1.142700e-02 6.000000e-02 
3.520700e-02 -1.142700e-02 -6.000000e-02 
3.520700e-02 -1.142700e-02 6.000000e-02 
3.840700e-02 -1.142700e-02 -6.000000e-02 
3.840700e-02 -1.142700e-02 6.000000e-02 
4.160800e-02 -1.142700e-02 -6.000000e-02 
4.160800e-02 -1.142700e-02 6.000000e-02 
4.480800e-02 -1.142700e-02 -5.988100e-02 
4.480800e-02 -1.142700e-02 5.988100e-02 
4.500000e-02 -1.142700e-02 -5.968100e-02 
4.500000e-02 -1.142700e-02 -5.645500e-02 
4.500000e-02 -1.142700e-02 -5.322900e-02 
4.500000e-02 -1.142700e-02 -5.000300e-02 
4.500000e-02 -1.142700e-02 -4.677700e-02 
4.500000e-02 -1.142700e-02 -4.355100e-02 
4.500000e-02 -1.142700e-02 -4.032500e-02 
4.500000e-02 -1.142700e-02 -3.709900e-02 
4.500000e-02 -1.142700e-02 -3.387300e-02 
4.500000e-02 -1.142700e-02 -3.064700e-02 
4.500000e-02 -1.142700e-02 -2.742100e-02 
4.500000e-02 -1.142700e-02 -2.419500e-02 
4.500000e-02 -1.142700e-02 -2.096900e-02 
4.500000e-02 -1.142700e-02 -1.774300e-02 
4.500000e-02 -1.142700e-02 -1.451700e-02 
4.500000e-02 -1.142700e-02 -1.129100e-02 
4.500000e-02 -1.142700e-02 -8.065000e-03 
4.500000e-02 -1.142700e-02 -4.839000e-03 
4.500000e-02 -1.142700e-02 -1.613000e-03 
4.500000e-02 -1.142700e-02 1.613000e-03 
4.500000e-02 -1.142700e-02 4.839000e-03 
4.500000e-02 -1.142700e-02 8.065000e-03 
4.500000e-02 -1.142700e-02 1.129100e-02 
4.500000e-02 -1.142700e-02 1.451700e-02 
4.500000e-02 -1.142700e-02 1.774300e-02 
4.500000e-02 -1.142700e-02 2.096900e-02 
4.500000e-02 -1.142700e-02 2.419500e-02 
4.500000e-02 -1.142700e-02 2.742100e-02 
4.500000e-02 -1.142700e-02 3.064700e-02 
4.500000e-02 -1.142700e-02 3.387300e-02 
4.500000e-02 -1.142700e-02 3.709900e-02 
4.500000e-02 -1.142700e-02 4.032500e-02 
4.500000e-02 -1.142700e-02 4.355100e-02 
4.500000e-02 -1.142700e-02 4.677700e-02 
4.500000e-02 -1.142700e-02 5.000300e-02 
4.500000e-02 -1.142700e-02 5.322900e-02 
4.500000e-02 -1.142700e-02 5.645500e-02 
4.500000e-02 -1.142700e-02 5.968100e-02 
-4.480800e-02 -8.162300e-03 -5.988100e-02 
-4.500000e-02 -8.162300e-03 -5.968100e-02 
-4.500000e-02 -8.162300e-03 -5.645500e-02 
-4.500000e-02 -8.162300e-03 -5.322900e-02 
-4.500000e-02 -8.162300e-03 -5.000300e-02 
-4.500000e-02 -8.162300e-03 -4.677700e-02 
-4.500000e-02 -8.162300e-03 -4.355100e-02 
-4.500000e-02 -8.162300e-03 -4.032500e-02 
-4.500000e-02 -8.162300e-03 -3.709900e-02 
-4.500000e-02 -8.162300e-03 -3.387300e-02 
-4.500000e-02 -8.162300e-03 -3.064700e-02 
-4.500000e-02 -8.162300e-03 -2.742100e-02 
-4.500000e-02 -8.162300e-03 -2.419500e-02 
-4.500000e-02 -8.162300e-03 -2.096900e-02 
-4.500000e-02 -8.162300e-03 -1.774300e-02 
-4.500000e-02 -8.162300e-03 -1.451700e-02 
-4.500000e-02 -8.162300e-03 -1.129100e-02 
-4.500000e-02 -8.162300e-03 -8.065000e-03 
-4.500000e-02 -8.162300e-03 -4.839000e-03 
-4.500000e-02 -8.162300e-03 -1.613000e-03 
-4.500000e-02 -8.162300e-03 1.613000e-03 
-4.500000e-02 -8.162300e-03 4.839000e-03 
-4.500000e-02 -8.162300e-03 8.065000e-03 
-4.500000e-02 -8.162300e-03 1.129100e-02 
-4.500000e-02 -8.162300e-03 1.451700e-02 
-4.500000e-02 -8.162300e-03 1.774300e-02 
-4.500000e-02 -8.162300e-03 2.096900e-02 
-4.500000e-02 -8.162300e-03 2.419500e-02 
-4.500000e-02 -8.162300e-03 2.742100e-02 
-4.500000e-02 -8.162300e-03 3.064700e-02 
-4.500000e-02 -8.162300e-03 3.387300e-02 
-4.500000e-02 -8.162300e-03 3.709900e-02 
-4.500000e-02 -8.162300e-03 4.032500e-02 
-4.500000e-02 -8.162300e-03 4.355100e-02 
-4.500000e-02 -8.162300e-03 4.677700e-02 
-4.500000e-02 -8.162300e-03 5.000300e-02 
-4.500000e-02 -8.162300e-03 5.322900e-02 
-4.500000e-02 -8.162300e-03 5.645500e-02 
-4.500000e-02 -8.162300e-03 5.968100e-02 
-4.480800e-02 -8.162300e-03 5.988100e-02 
-4.160800e-02 -8.162300e-03 -6.000000e-02 
-4.160800e-02 -8.162300e-03 6.000000e-02 
-3.840700e-02 -8.162300e-03 -6.000000e-02 
-3.840700e-02 -8.162300e-03 6.000000e-02 
-3.520700e-02 -8.162300e-03 -6.000000e-02 
-3.520700e-02 -8.162300e-03 6.000000e-02 
-3.200600e-02 -8.162300e-03 -6.000000e-02 
-3.200600e-02 -8.162300e-03 6.000000e-02 
-2.880500e-02 -8.162300e-03 -6.000000e-02 
-2.880500e-02 -8.162300e-03 6.000000e-02 
-2.560500e-02 -8.162300e-03 -6.000000e-02 
-2.560500e-02 -8.162300e-03 6.000000e-02 
-2.240400e-02 -8.162300e-03 -6.000000e-02 
-2.240400e-02 -8.162300e-03 6.000000e-02 
-1.920400e-02 -8.162300e-03 -6.000000e-02 
-1.920400e-02 -8.162300e-03 6.000000e-02 
-1.600300e-02 -8.162300e-03 -6.000000e-02 
-1.600300e-02 -8.162300e-03 6.000000e-02 
-1.280200e-02 -8.162300e-03 -6.000000e-02 
-1.280200e-02 -8.162300e-03 6.000000e-02 
-9.601800e-03 -8.162300e-03 -6.000000e-02 
-9.601800e-03 -8.162300e-03 6.000000e-02 
-6.401200e-03 -8.162300e-03 -6.000000e-02 
-6.401200e-03 -8.162300e-03 6.000000e-02 
-3.200600e-03 -8.162300e-03 -6.000000e-02 
-3.200600e-03 -8.162300e-03 6.000000e-02 
0.000000e+00 -8.162300e-03 -6.000000e-02 
0.000000e+00 -8.162300e-03 6.000000e-02 
3.200600e-03 -8.162300e-03 -6.000000e-02 
3.200600e-03 -8.162300e-03 6.000000e-02 
6.401200e-03 -8.162300e-03 -6.000000e-02 
6.401200e-03 -8.162300e-03 6.000000e-02 
9.601800e-03 -8.162300e-03 -6.000000e-02 
9.601800e-03 -8.162300e-03 6.000000e-02 
1.280200e-02 -8.162300e-03 -6.000000e-02 
1.280200e-02 -8.162300e-03 6.000000e-02 
1.600300e-02 -8.162300e-03 -6.000000e-02 
1.600300e-02 -8.162300e-03 6.000000e-02 
1.920400e-02 -8.162300e-03 -6.000000e-02 
1.920400e-02 -8.162300e-03 6.000000e-02 
2.240400e-02 -8.162300e-03 -6.000000e-02 
2.240400e-02 -8.162300e-03 6.000000e-02 
2.560500e-02 -8.162300e-03 -6.000000e-02 
2.560500e-02 -8.162300e-03 6.000000e-02 
2.880500e-02 -8.162300e-03 -6.000000e-02 
2.880500e-02 -8.162300e-03 6.000000e-02 
3.200600e-02 -8.162300e-03 -6.000000e-02 
3.200600e-02 -8.162300e-03 6.000000e-02 
3.520700e-02 -8.162300e-03 -6.000000e-02 
3.520700e-02 -8.162300e-03 6.000000e-02 
3.840700e-02 -8.162300e-03 -6.000000e-02 
3.840700e-02 -8.162300e-03 6.000000e-02 
4.160800e-02 -8.162300e-03 -6.000000e-02 
4.160800e-02 -8.162300e-03 6.000000e-02 
4.480800e-02 -8.162300e-03 -5.988100e-02 
4.480800e-02 -8.162300e-03 5.988100e-02 
4.500000e-02 -8.162300e-03 -5.968100e-02 
4.500000e-02 -8.162300e-03 -5.645500e-02 
4.500000e-02 -8.162300e-03 -5.322900e-02 
4.500000e-02 -8.162300e-03 -5.000300e-02 
4.500000e-02 -8.162300e-03 -4.677700e-02 
4.500000e-02 -8.162300e-03 -4.355100e-02 
4.500000e-02 -8.162300e-03 -4.032500e-02 
4.500000e-02 -8.162300e-03 -3.709900e-02 
4.500000e-02 -8.162300e-03 -3.387300e-02 
4.500000e-02 -8.162300e-03 -3.064700e-02 
4.500000e-02 -8.162300e-03 -2.742100e-02 
4.500000e-02 -8.162300e-03 -2.419500e-02 
4.500000e-02 -8.162300e-03 -2.096900e-02 
4.500000e-02 -8.162300e-03 -1.774300e-02 
4.500000e-02 -8.162300e-03 -1.451700e-02 
4.500000e-02 -8.162300e-03 -1.129100e-02 
4.500000e-02 -8.162300e-03 -8.065000e-03 
4.500000e-02 -8.162300e-03 -4.839000e-03 
4.500000e-02 -8.162300e-03 -1.613000e-03 
4.500000e-02 -8.162300e-03 1.613000e-03 
4.500000e-02 -8.162300e-03 4.839000e-03 
4.500000e-02 -8.162300e-03 8.065000e-03 
4.500000e-02 -8.162300e-03 1.129100e-02 
4.500000e-02 -8.162300e-03 1.451700e-02 
4.500000e-02 -8.162300e-03 1.774300e-02 
4.500000e-02 -8.162300e-03 2.096900e-02 
4.500000e-02 -8.162300e-03 2.419500e-02 
4.500000e-02 -8.162300e-03 2.742100e-02 
4.500000e-02 -8.162300e-03 3.064700e-02 
4.500000e-02 -8.162300e-03 3.387300e-02 
4.500000e-02 -8.162300e-03 3.709900e-02 
4.500000e-02 -8.162300e-03 4.032500e-02 
4.500000e-02 -8.162300e-03 4.355100e-02 
4.500000e-02 -8.162300e-03 4.677700e-02 
4.500000e-02 -8.162300e-03 5.000300e-02 
4.500000e-02 -8.162300e-03 5.322900e-02 
4.500000e-02 -8.162300e-03 5.645500e-02 
4.500000e-02 -8.162300e-03 5.968100e-02 
-4.480800e-02 -4.897400e-03 -5.988100e-02 
-4.500000e-02 -4.897400e-03 -5.968100e-02 
-4.500000e-02 -4.897400e-03 -5.645500e-02 
-4.500000e-02 -4.897400e-03 -5.322900e-02 
-4.500000e-02 -4.897400e-03 -5.000300e-02 
-4.500000e-02 -4.897400e-03 -4.677700e-02 
-4.500000e-02 -4.897400e-03 -4.355100e-02 
-4.500000e-02 -4.897400e-03 -4.032500e-02 
-4.500000e-02 -4.897400e-03 -3.709900e-02 
-4.500000e-02 -4.897400e-03 -3.387300e-02 
-4.500000e-02 -4.897400e-03 -3.064700e-02 
-4.500000e-02 -4.897400e-03 -2.742100e-02 
-4.500000e-02 -4.897400e-03 -2.419500e-02 
-4.500000e-02 -4.897400e-03 -2.096900e-02 
-4.500000e-02 -4.897400e-03 -1.774300e-02 
-4.500000e-02 -4.897400e-03 -1.451700e-02 
-4.500000e-02 -4.897400e-03 -1.129100e-02 
-4.500000e-02 -4.897400e-03 -8.065000e-03 
-4.500000e-02 -4.897400e-03 -4.839000e-03 
-4.500000e-02 -4.897400e-03 -1.613000e-03 
-4.500000e-02 -4.897400e-03 1.613000e-03 
-4.500000e-02 -4.897400e-03 4.839000e-03 
-4.500000e-02 -4.897400e-03 8.065000e-03 
-4.500000e-02 -4.897400e-03 1.129100e-02 
-4.500000e-02 -4.897400e-03 1.451700e-02 
-4.500000e-02 -4.897400e-03 1.774300e-02 
-4.500000e-02 -4.897400e-03 2.096900e-02 
-4.500000e-02 -4.897400e-03 2.419500e-02 
-4.500000e-02 -4.897400e-03 2.742100e-02 
-4.500000e-02 -4.897400e-03 3.064700e-02 
-4.500000e-02 -4.897400e-03 3.387300e-02 
-4.500000e-02 -4.897400e-03 3.709900e-02 
-4.500000e-02 -4.897400e-03 4.032500e-02 
-4.500000e-02 -4.897400e-03 4.355100e-02 
-4.500000e-02 -4.897400e-03 4.677700e-02 
-4.500000e-02 -4.897400e-03 5.000300e-02 
-4.500000e-02 -4.897400e-03 5.322900e-02 
-4.500000e-02 -4.897400e-03 5.645500e-02 
-4.500000e-02 -4.897400e-03 5.968100e-02 
-4.480800e-02 -4.897400e-03 5.988100e-02 
-4.160800e-02 -4.897400e-03 -6.000000e-02 
-4.160800e-02 -4.897400e-03 6.000000e-02 
-3.840700e-02 -4.897400e-03 -6.000000e-02 
-3.840700e-02 -4.897400e-03 6.000000e-02 
-3.520700e-02 -4.897400e-03 -6.000000e-02 
-3.520700e-02 -4.897400e-03 6.000000e-02 
-3.200600e-02 -4.897400e-03 -6.000000e-02 
-3.200600e-02 -4.897400e-03 6.000000e-02 
-2.880500e-02 -4.897400e-03 -6.000000e-02 
-2.880500e-02 -4.897400e-03 6.000000e-02 
-2.560500e-02 -4.897400e-03 -6.000000e-02 
-2.560500e-02 -4.897400e-03 6.000000e-02 
-2.240400e-02 -4.897400e-03 -6.000000e-02 
-2.240400e-02 -4.897400e-03 6.000000e-02 
-1.920400e-02 -4.897400e-03 -6.000000e-02 
-1.920400e-02 -4.897400e-03 6.000000e-02 
-1.600300e-02 -4.897400e-03 -6.000000e-02 
-1.600300e-02 -4.897400e-03 6.000000e-02 
-1.280200e-02 -4.897400e-03 -6.000000e-02 
-1.280200e-02 -4.897400e-03 6.000000e-02 
-9.601800e-03 -4.897400e-03 -6.000000e-02 
-9.601800e-03 -4.897400e-03 6.000000e-02 
-6.401200e-03 -4.897400e-03 -6.000000e-02 
-6.401200e-03 -4.897400e-03 6.000000e-02 
-3.200600e-03 -4.897400e-03 -6.000000e-02 
-3.200600e-03 -4.897400e-03 6.000000e-02 
0.000000e+00 -4.897400e-03 -6.000000e-02 
0.000000e+00 -4.897400e-03 6.000000e-02 
3.200600e-03 -4.897400e-03 -6.000000e-02 
3.200600e-03 -4.897400e-03 6.000000e-02 
6.401200e-03 -4.897400e-03 -6.000000e-02 
6.401200e-03 -4.897400e-03 6.000000e-02 
9.601800e-03 -4.897400e-03 -6.000000e-02 
9.601800e-03 -4.897400e-03 6.000000e-02 
1.280200e-02 -4.897400e-03 -6.000000e-02 
1.280200e-02 -4.897400e-03 6.000000e-02 
1.600300e-02 -4.897400e-03 -6.000000e-02 
1.600300e-02 -4.897400e-03 6.000000e-02 
1.920400e-02 -4.897400e-03 -6.000000e-02 
1.920400e-02 -4.897400e-03 6.000000e-02 
2.240400e-02 -4.897400e-03 -6.000000e-02 
2.240400e-02 -4.897400e-03 6.000000e-02 
2.560500e-02 -4.897400e-03 -6.000000e-02 
2.560500e-02 -4.897400e-03 6.000000e-02 
2.880500e-02 -4.897400e-03 -6.000000e-02 
2.880500e-02 -4.897400e-03 6.000000e-02 
3.200600e-02 -4.897400e-03 -6.000000e-02 
3.200600e-02 -4.897400e-03 6.000000e-02 
3.520700e-02 -4.897400e-03 -6.000000e-02 
3.520700e-02 -4.897400e-03 6.000000e-02 
3.840700e-02 -4.897400e-03 -6.000000e-02 
3.840700e-02 -4.897400e-03 6.000000e-02 
4.160800e-02 -4.897400e-03 -6.000000e-02 
4.160800e-02 -4.897400e-03 6.000000e-02 
4.480800e-02 -4.897400e-03 -5.988100e-02 
4.480800e-02 -4.897400e-03 5.988100e-02 
4.500000e-02 -4.897400e-03 -5.968100e-02 
4.500000e-02 -4.897400e-03 -5.645500e-02 
4.500000e-02 -4.897400e-03 -5.322900e-02 
4.500000e-02 -4.897400e-03 -5.000300e-02 
4.500000e-02 -4.897400e-03 -4.677700e-02 
4.500000e-02 -4.897400e-03 -4.355100e-02 
4.500000e-02 -4.897400e-03 -4.032500e-02 
4.500000e-02 -4.897400e-03 -3.709900e-02 
4.500000e-02 -4.897400e-03 -3.387300e-02 
4.500000e-02 -4.897400e-03 -3.064700e-02 
4.500000e-02 -4.897400e-03 -2.742100e-02 
4.500000e-02 -4.897400e-03 -2.419500e-02 
4.500000e-02 -4.897400e-03 -2.096900e-02 
4.500000e-02 -4.897400e-03 -1.774300e-02 
4.500000e-02 -4.897400e-03 -1.451700e-02 
4.500000e-02 -4.897400e-03 -1.129100e-02 
4.500000e-02 -4.897400e-03 -8.065000e-03 
4.500000e-02 -4.897400e-03 -4.839000e-03 
4.500000e-02 -4.897400e-03 -1.613000e-03 
4.500000e-02 -4.897400e-03 1.613000e-03 
4.500000e-02 -4.897400e-03 4.839000e-03 
4.500000e-02 -4.897400e-03 8.065000e-03 
4.500000e-02 -4.897400e-03 1.129100e-02 
4.500000e-02 -4.897400e-03 1.451700e-02 
4.500000e-02 -4.897400e-03 1.774300e-02 
4.500000e-02 -4.897400e-03 2.096900e-02 
4.500000e-02 -4.897400e-03 2.419500e-02 
4.500000e-02 -4.897400e-03 2.742100e-02 
4.500000e-02 -4.897400e-03 3.064700e-02 
4.500000e-02 -4.897400e-03 3.387300e-02 
4.500000e-02 -4.897400e-03 3.709900e-02 
4.500000e-02 -4.897400e-03 4.032500e-02 
4.500000e-02 -4.897400e-03 4.355100e-02 
4.500000e-02 -4.897400e-03 4.677700e-02 
4.500000e-02 -4.897400e-03 5.000300e-02 
4.500000e-02 -4.897400e-03 5.322900e-02 
4.500000e-02 -4.897400e-03 5.645500e-02 
4.500000e-02 -4.897400e-03 5.968100e-02 
-4.480800e-02 -1.632500e-03 -5.988100e-02 
-4.500000e-02 -1.632500e-03 -5.968100e-02 
-4.500000e-02 -1.632500e-03 -5.645500e-02 
-4.500000e-02 -1.632500e-03 -5.322900e-02 
-4.500000e-02 -1.632500e-03 -5.000300e-02 
-4.500000e-02 -1.632500e-03 -4.677700e-02 
-4.500000e-02 -1.632500e-03 -4.355100e-02 
-4.500000e-02 -1.632500e-03 -4.032500e-02 
-4.500000e-02 -1.632500e-03 -3.709900e-02 
-4.500000e-02 -1.632500e-03 -3.387300e-02 
-4.500000e-02 -1.632500e-03 -3.064700e-02 
-4.500000e-02 -1.632500e-03 -2.742100e-02 
-4.500000e-02 -1.632500e-03 -2.419500e-02 
-4.500000e-02 -1.632500e-03 -2.096900e-02 
-4.500000e-02 -1.632500e-03 -1.774300e-02 
-4.500000e-02 -1.632500e-03 -1.451700e-02 
-4.500000e-02 -1.632500e-03 -1.129100e-02 
-4.500000e-02 -1.632500e-03 -8.065000e-03 
-4.500000e-02 -1.632500e-03 -4.839000e-03 
-4.500000e-02 -1.632500e-03 -1.613000e-03 
-4.500000e-02 -1.632500e-03 1.613000e-03 
-4.500000e-02 -1.632500e-03 4.839000e-03 
-4.500000e-02 -1.632500e-03 8.065000e-03 
-4.500000e-02 -1.632500e-03 1.129100e-02 
-4.500000e-02 -1.632500e-03 1.451700e-02 
-4.500000e-02 -1.632500e-03 1.774300e-02 
-4.500000e-02 -1.632500e-03 2.096900e-02 
-4.500000e-02 -1.632500e-03 2.419500e-02 
-4.500000e-02 -1.632500e-03 2.742100e-02 
-4.500000e-02 -1.632500e-03 3.064700e-02 
-4.500000e-02 -1.632500e-03 3.387300e-02 
-4.500000e-02 -1.632500e-03 3.709900e-02 
-4.500000e-02 -1.632500e-03 4.032500e-02 
-4.500000e-02 -1.632500e-03 4.355100e-02 
-4.500000e-02 -1.632500e-03 4.677700e-02 
-4.500000e-02 -1.632500e-03 5.000300e-02 
-4.500000e-02 -1.632500e-03 5.322900e-02 
-4.500000e-02 -1.632500e-03 5.645500e-02 
-4.500000e-02 -1.632500e-03 5.968100e-02 
-4.480800e-02 -1.632500e-03 5.988100e-02 
-4.160800e-02 -1.632500e-03 -6.000000e-02 
-4.160800e-02 -1.632500e-03 6.000000e-02 
-3.840700e-02 -1.632500e-03 -6.000000e-02 
-3.840700e-02 -1.632500e-03 6.000000e-02 
-3.520700e-02 -1.632500e-03 -6.000000e-02 
-3.520700e-02 -1.632500e-03 6.000000e-02 
-3.200600e-02 -1.632500e-03 -6.000000e-02 
-3.200600e-02 -1.632500e-03 6.000000e-02 
-2.880500e-02 -1.632500e-03 -6.000000e-02 
-2.880500e-02 -1.632500e-03 6.000000e-02 
-2.560500e-02 -1.632500e-03 -6.000000e-02 
-2.560500e-02 -1.632500e-03 6.000000e-02 
-2.240400e-02 -1.632500e-03 -6.000000e-02 
-2.240400e-02 -1.632500e-03 6.000000e-02 
-1.920400e-02 -1.632500e-03 -6.000000e-02 
-1.920400e-02 -1.632500e-03 6.000000e-02 
-1.600300e-02 -1.632500e-03 -6.000000e-02 
-1.600300e-02 -1.632500e-03 6.000000e-02 
-1.280200e-02 -1.632500e-03 -6.000000e-02 
-1.280200e-02 -1.632500e-03 6.000000e-02 
-9.601800e-03 -1.632500e-03 -6.000000e-02 
-9.601800e-03 -1.632500e-03 6.000000e-02 
-6.401200e-03 -1.632500e-03 -6.000000e-02 
-6.401200e-03 -1.632500e-03 6.000000e-02 
-3.200600e-03 -1.632500e-03 -6.000000e-02 
-3.200600e-03 -1.632500e-03 6.000000e-02 
0.000000e+00 -1.632500e-03 -6.000000e-02 
0.000000e+00 -1.632500e-03 6.000000e-02 
3.200600e-03 -1.632500e-03 -6.000000e-02 
3.200600e-03 -1.632500e-03 6.000000e-02 
6.401200e-03 -1.632500e-03 -6.000000e-02 
6.401200e-03 -1.632500e-03 6.000000e-02 
9.601800e-03 -1.632500e-03 -6.000000e-02 
9.601800e-03 -1.632500e-03 6.000000e-02 
1.280200e-02 -1.632500e-03 -6.000000e-02 
1.280200e-02 -1.632500e-03 6.000000e-02 
1.600300e-02 -1.632500e-03 -6.000000e-02 
1.600300e-02 -1.632500e-03 6.000000e-02 
1.920400e-02 -1.632500e-03 -6.000000e-02 
1.920400e-02 -1.632500e-03 6.000000e-02 
2.240400e-02 -1.632500e-03 -6.000000e-02 
2.240400e-02 -1.632500e-03 6.000000e-02 
2.560500e-02 -1.632500e-03 -6.000000e-02 
2.560500e-02 -1.632500e-03 6.000000e-02 
2.880500e-02 -1.632500e-03 -6.000000e-02 
2.880500e-02 -1.632500e-03 6.000000e-02 
3.200600e-02 -1.632500e-03 -6.000000e-02 
3.200600e-02 -1.632500e-03 6.000000e-02 
3.520700e-02 -1.632500e-03 -6.000000e-02 
3.520700e-02 -1.632500e-03 6.000000e-02 
3.840700e-02 -1.632500e-03 -6.000000e-02 
3.840700e-02 -1.632500e-03 6.000000e-02 
4.160800e-02 -1.632500e-03 -6.000000e-02 
4.160800e-02 -1.632500e-03 6.000000e-02 
4.480800e-02 -1.632500e-03 -5.988100e-02 
4.480800e-02 -1.632500e-03 5.988100e-02 
4.500000e-02 -1.632500e-03 -5.968100e-02 
4.500000e-02 -1.632500e-03 -5.645500e-02 
4.500000e-02 -1.632500e-03 -5.322900e-02 
4.500000e-02 -1.632500e-03 -5.000300e-02 
4.500000e-02 -1.632500e-03 -4.677700e-02 
4.500000e-02 -1.632500e-03 -4.355100e-02 
4.500000e-02 -1.632500e-03 -4.032500e-02 
4.500000e-02 -1.632500e-03 -3.709900e-02 
4.500000e-02 -1.632500e-03 -3.387300e-02 
4.500000e-02 -1.632500e-03 -3.064700e-02 
4.500000e-02 -1.632500e-03 -2.742100e-02 
4.500000e-02 -1.632500e-03 -2.419500e-02 
4.500000e-02 -1.632500e-03 -2.096900e-02 
4.500000e-02 -1.632500e-03 -1.774300e-02 
4.500000e-02 -1.632500e-03 -1.451700e-02 
4.500000e-02 -1.632500e-03 -1.129100e-02 
4.500000e-02 -1.632500e-03 -8.065000e-03 
4.500000e-02 -1.632500e-03 -4.839000e-03 
4.500000e-02 -1.632500e-03 -1.613000e-03 
4.500000e-02 -1.632500e-03 1.613000e-03 
4.500000e-02 -1.632500e-03 4.839000e-03 
4.500000e-02 -1.632500e-03 8.065000e-03 
4.500000e-02 -1.632500e-03 1.129100e-02 
4.500000e-02 -1.632500e-03 1.451700e-02 
4.500000e-02 -1.632500e-03 1.774300e-02 
4.500000e-02 -1.632500e-03 2.096900e-02 
4.500000e-02 -1.632500e-03 2.419500e-02 
4.500000e-02 -1.632500e-03 2.742100e-02 
4.500000e-02 -1.632500e-03 3.064700e-02 
4.500000e-02 -1.632500e-03 3.387300e-02 
4.500000e-02 -1.632500e-03 3.709900e-02 
4.500000e-02 -1.632500e-03 4.032500e-02 
4.500000e-02 -1.632500e-03 4.355100e-02 
4.500000e-02 -1.632500e-03 4.677700e-02 
4.500000e-02 -1.632500e-03 5.000300e-02 
4.500000e-02 -1.632500e-03 5.322900e-02 
4.500000e-02 -1.632500e-03 5.645500e-02 
4.500000e-02 -1.632500e-03 5.968100e-02 
-4.480800e-02 1.632500e-03 -5.988100e-02 
-4.500000e-02 1.632500e-03 -5.968100e-02 
-4.500000e-02 1.632500e-03 -5.645500e-02 
-4.500000e-02 1.632500e-03 -5.322900e-02 
-4.500000e-02 1.632500e-03 -5.000300e-02 
-4.500000e-02 1.632500e-03 -4.677700e-02 
-4.500000e-02 1.632500e-03 -4.355100e-02 
-4.500000e-02 1.632500e-03 -4.032500e-02 
-4.500000e-02 1.632500e-03 -3.709900e-02 
-4.500000e-02 1.632500e-03 -3.387300e-02 
-4.500000e-02 1.632500e-03 -3.064700e-02 
-4.500000e-02 1.632500e-03 -2.742100e-02 
-4.500000e-02 1.632500e-03 -2.419500e-02 
-4.500000e-02 1.632500e-03 -2.096900e-02 
-4.500000e-02 1.632500e-03 -1.774300e-02 
-4.500000e-02 1.632500e-03 -1.451700e-02 
-4.500000e-02 1.632500e-03 -1.129100e-02 
-4.500000e-02 1.632500e-03 -8.065000e-03 
-4.500000e-02 1.632500e-03 -4.839000e-03 
-4.500000e-02 1.632500e-03 -1.613000e-03 
-4.500000e-02 1.632500e-03 1.613000e-03 
-4.500000e-02 1.632500e-03 4.839000e-03 
-4.500000e-02 1.632500e-03 8.065000e-03 
-4.500000e-02 1.632500e-03 1.129100e-02 
-4.500000e-02 1.632500e-03 1.451700e-02 
-4.500000e-02 1.632500e-03 1.774300e-02 
-4.500000e-02 1.632500e-03 2.096900e-02 
-4.500000e-02 1.632500e-03 2.419500e-02 
-4.500000e-02 1.632500e-03 2.742100e-02 
-4.500000e-02 1.632500e-03 3.064700e-02 
-4.500000e-02 1.632500e-03 3.387300e-02 
-4.500000e-02 1.632500e-03 3.709900e-02 
-4.500000e-02 1.632500e-03 4.032500e-02 
-4.500000e-02 1.632500e-03 4.355100e-02 
-4.500000e-02 1.632500e-03 4.677700e-02 
-4.500000e-02 1.632500e-03 5.000300e-02 
-4.500000e-02 1.632500e-03 5.322900e-02 
-4.500000e-02 1.632500e-03 5.645500e-02 
-4.500000e-02 1.632500e-03 5.968100e-02 
-4.480800e-02 1.632500e-03 5.988100e-02 
-4.160800e-02 1.632500e-03 -6.000000e-02 
-4.160800e-02 1.632500e-03 6.000000e-02 
-3.840700e-02 1.632500e-03 -6.000000e-02 
-3.840700e-02 1.632500e-03 6.000000e-02 
-3.520700e-02 1.632500e-03 -6.000000e-02 
-3.520700e-02 1.632500e-03 6.000000e-02 
-3.200600e-02 1.632500e-03 -6.000000e-02 
-3.200600e-02 1.632500e-03 6.000000e-02 
-2.880500e-02 1.632500e-03 -6.000000e-02 
-2.880500e-02 1.632500e-03 6.000000e-02 
-2.560500e-02 1.632500e-03 -6.000000e-02 
-2.560500e-02 1.632500e-03 6.000000e-02 
-2.240400e-02 1.632500e-03 -6.000000e-02 
-2.240400e-02 1.632500e-03 6.000000e-02 
-1.920400e-02 1.632500e-03 -6.000000e-02 
-1.920400e-02 1.632500e-03 6.000000e-02 
-1.600300e-02 1.632500e-03 -6.000000e-02 
-1.600300e-02 1.632500e-03 6.000000e-02 
-1.280200e-02 1.632500e-03 -6.000000e-02 
-1.280200e-02 1.632500e-03 6.000000e-02 
-9.601800e-03 1.632500e-03 -6.000000e-02 
-9.601800e-03 1.632500e-03 6.000000e-02 
-6.401200e-03 1.632500e-03 -6.000000e-02 
