# .PCD v.6 - Point Cloud Data file format
FIELDS x y z 
SIZE 4 4 4 
TYPE F F F 
COUNT 1 1 1 
WIDTH 1143
HEIGHT 1
POINTS 1143
DATA ascii
5.220600e-02 -3.692400e-02 -4.472000e-02 
5.220600e-02 -3.692400e-02 -4.024800e-02 
5.220600e-02 -3.692400e-02 -3.577600e-02 
5.220600e-02 -3.692400e-02 -3.130400e-02 
5.220600e-02 -3.692400e-02 -2.683200e-02 
5.220600e-02 -3.692400e-02 -2.236000e-02 
5.220600e-02 -3.692400e-02 -1.788800e-02 
5.220600e-02 -3.692400e-02 -1.341600e-02 
5.220600e-02 -3.692400e-02 -8.944000e-03 
5.220600e-02 -3.692400e-02 -4.472000e-03 
5.220600e-02 -3.692400e-02 0.000000e+00 
5.220600e-02 -3.692400e-02 4.472000e-03 
5.220600e-02 -3.692400e-02 8.944000e-03 
5.220600e-02 -3.692400e-02 1.341600e-02 
5.220600e-02 -3.692400e-02 1.788800e-02 
5.220600e-02 -3.692400e-02 2.236000e-02 
5.220600e-02 -3.692400e-02 2.683200e-02 
5.220600e-02 -3.692400e-02 3.130400e-02 
5.220600e-02 -3.692400e-02 3.577600e-02 
5.220600e-02 -3.692400e-02 4.024800e-02 
5.220600e-02 -3.692400e-02 4.472000e-02 
5.123600e-02 -3.692400e-02 4.919200e-02 
-4.995600e-02 -3.258000e-02 -5.000000e-02 
-5.320400e-02 -3.258000e-02 -4.919200e-02 
-5.400500e-02 -3.258000e-02 -4.472000e-02 
-5.400500e-02 -3.258000e-02 -4.024800e-02 
-5.400500e-02 -3.258000e-02 -3.577600e-02 
-5.400500e-02 -3.258000e-02 -3.130400e-02 
-5.400500e-02 -3.258000e-02 -2.683200e-02 
-5.400500e-02 -3.258000e-02 -2.236000e-02 
-5.400500e-02 -3.258000e-02 -1.788800e-02 
-5.400500e-02 -3.258000e-02 -1.341600e-02 
-5.400500e-02 -3.258000e-02 -8.944000e-03 
-5.400500e-02 -3.258000e-02 -4.472000e-03 
-5.400500e-02 -3.258000e-02 0.000000e+00 
-5.400500e-02 -3.258000e-02 4.472000e-03 
-5.400500e-02 -3.258000e-02 8.944000e-03 
-5.400500e-02 -3.258000e-02 1.341600e-02 
-5.400500e-02 -3.258000e-02 1.788800e-02 
-5.400500e-02 -3.258000e-02 2.236000e-02 
-5.400500e-02 -3.258000e-02 2.683200e-02 
-5.400500e-02 -3.258000e-02 3.130400e-02 
-5.400500e-02 -3.258000e-02 3.577600e-02 
-5.400500e-02 -3.258000e-02 4.024800e-02 
-5.400500e-02 -3.258000e-02 4.472000e-02 
-5.320400e-02 -3.258000e-02 4.919200e-02 
-4.995600e-02 -3.258000e-02 5.000000e-02 
-4.561200e-02 -3.258000e-02 -5.000000e-02 
-4.561200e-02 -3.258000e-02 5.000000e-02 
-4.126800e-02 -3.258000e-02 -5.000000e-02 
-4.126800e-02 -3.258000e-02 5.000000e-02 
-3.692400e-02 -3.258000e-02 -5.000000e-02 
-3.692400e-02 -3.258000e-02 5.000000e-02 
-3.258000e-02 -3.258000e-02 -5.000000e-02 
-3.258000e-02 -3.258000e-02 5.000000e-02 
-2.823600e-02 -3.258000e-02 -5.000000e-02 
-2.823600e-02 -3.258000e-02 5.000000e-02 
-2.389200e-02 -3.258000e-02 -5.000000e-02 
-2.389200e-02 -3.258000e-02 5.000000e-02 
-1.954800e-02 -3.258000e-02 -5.000000e-02 
-1.954800e-02 -3.258000e-02 5.000000e-02 
-1.520400e-02 -3.258000e-02 -5.000000e-02 
-1.520400e-02 -3.258000e-02 5.000000e-02 
-1.086000e-02 -3.258000e-02 -5.000000e-02 
-1.086000e-02 -3.258000e-02 5.000000e-02 
-6.516000e-03 -3.258000e-02 -5.000000e-02 
-6.516000e-03 -3.258000e-02 5.000000e-02 
-2.172000e-03 -3.258000e-02 -5.000000e-02 
-2.172000e-03 -3.258000e-02 5.000000e-02 
2.172000e-03 -3.258000e-02 -5.000000e-02 
2.172000e-03 -3.258000e-02 5.000000e-02 
6.516000e-03 -3.258000e-02 -5.000000e-02 
6.516000e-03 -3.258000e-02 5.000000e-02 
1.086000e-02 -3.258000e-02 -5.000000e-02 
1.086000e-02 -3.258000e-02 5.000000e-02 
1.520400e-02 -3.258000e-02 -5.000000e-02 
1.520400e-02 -3.258000e-02 5.000000e-02 
1.954800e-02 -3.258000e-02 -5.000000e-02 
1.954800e-02 -3.258000e-02 5.000000e-02 
2.389200e-02 -3.258000e-02 -5.000000e-02 
2.389200e-02 -3.258000e-02 5.000000e-02 
2.823600e-02 -3.258000e-02 -5.000000e-02 
2.823600e-02 -3.258000e-02 5.000000e-02 
3.258000e-02 -3.258000e-02 -5.000000e-02 
3.258000e-02 -3.258000e-02 5.000000e-02 
3.692400e-02 -3.258000e-02 -5.000000e-02 
3.692400e-02 -3.258000e-02 5.000000e-02 
4.126800e-02 -3.258000e-02 -5.000000e-02 
4.126800e-02 -3.258000e-02 5.000000e-02 
4.561200e-02 -3.258000e-02 -5.000000e-02 
4.561200e-02 -3.258000e-02 5.000000e-02 
4.995600e-02 -3.258000e-02 -5.000000e-02 
4.995600e-02 -3.258000e-02 5.000000e-02 
5.320400e-02 -3.258000e-02 -4.919200e-02 
5.400500e-02 -3.258000e-02 -4.472000e-02 
5.400500e-02 -3.258000e-02 -4.024800e-02 
5.400500e-02 -3.258000e-02 -3.577600e-02 
5.400500e-02 -3.258000e-02 -3.130400e-02 
5.400500e-02 -3.258000e-02 -2.683200e-02 
5.400500e-02 -3.258000e-02 -2.236000e-02 
5.400500e-02 -3.258000e-02 -1.788800e-02 
5.400500e-02 -3.258000e-02 -1.341600e-02 
5.400500e-02 -3.258000e-02 -8.944000e-03 
5.400500e-02 -3.258000e-02 -4.472000e-03 
5.400500e-02 -3.258000e-02 0.000000e+00 
5.400500e-02 -3.258000e-02 4.472000e-03 
5.400500e-02 -3.258000e-02 8.944000e-03 
5.400500e-02 -3.258000e-02 1.341600e-02 
5.400500e-02 -3.258000e-02 1.788800e-02 
5.400500e-02 -3.258000e-02 2.236000e-02 
5.400500e-02 -3.258000e-02 2.683200e-02 
5.400500e-02 -3.258000e-02 3.130400e-02 
5.400500e-02 -3.258000e-02 3.577600e-02 
5.400500e-02 -3.258000e-02 4.024800e-02 
5.400500e-02 -3.258000e-02 4.472000e-02 
5.320400e-02 -3.258000e-02 4.919200e-02 
-5.430000e-02 -2.823600e-02 -5.000000e-02 
-5.430000e-02 -3.148400e-02 -4.919200e-02 
-5.532300e-02 -2.823600e-02 -4.919200e-02 
-5.430000e-02 -3.186800e-02 -4.472000e-02 
-5.580400e-02 -2.823600e-02 -4.472000e-02 
-5.430000e-02 -3.186800e-02 -4.024800e-02 
-5.580400e-02 -2.823600e-02 -4.024800e-02 
-5.430000e-02 -3.186800e-02 -3.577600e-02 
-5.580400e-02 -2.823600e-02 -3.577600e-02 
-5.430000e-02 -3.186800e-02 -3.130400e-02 
-5.580400e-02 -2.823600e-02 -3.130400e-02 
-5.430000e-02 -3.186800e-02 -2.683200e-02 
-5.580400e-02 -2.823600e-02 -2.683200e-02 
-5.430000e-02 -3.186800e-02 -2.236000e-02 
-5.580400e-02 -2.823600e-02 -2.236000e-02 
-5.430000e-02 -3.186800e-02 -1.788800e-02 
-5.580400e-02 -2.823600e-02 -1.788800e-02 
-5.430000e-02 -3.186800e-02 -1.341600e-02 
-5.580400e-02 -2.823600e-02 -1.341600e-02 
-5.430000e-02 -3.186800e-02 -8.944000e-03 
-5.580400e-02 -2.823600e-02 -8.944000e-03 
-5.430000e-02 -3.186800e-02 -4.472000e-03 
-5.580400e-02 -2.823600e-02 -4.472000e-03 
-5.430000e-02 -3.186800e-02 0.000000e+00 
-5.580400e-02 -2.823600e-02 0.000000e+00 
-5.430000e-02 -3.186800e-02 4.472000e-03 
-5.580400e-02 -2.823600e-02 4.472000e-03 
-5.430000e-02 -3.186800e-02 8.944000e-03 
-5.580400e-02 -2.823600e-02 8.944000e-03 
-5.430000e-02 -3.186800e-02 1.341600e-02 
-5.580400e-02 -2.823600e-02 1.341600e-02 
-5.430000e-02 -3.186800e-02 1.788800e-02 
-5.580400e-02 -2.823600e-02 1.788800e-02 
-5.430000e-02 -3.186800e-02 2.236000e-02 
-5.580400e-02 -2.823600e-02 2.236000e-02 
-5.430000e-02 -3.186800e-02 2.683200e-02 
-5.580400e-02 -2.823600e-02 2.683200e-02 
-5.430000e-02 -3.186800e-02 3.130400e-02 
-5.580400e-02 -2.823600e-02 3.130400e-02 
-5.430000e-02 -3.186800e-02 3.577600e-02 
-5.580400e-02 -2.823600e-02 3.577600e-02 
-5.430000e-02 -3.186800e-02 4.024800e-02 
-5.580400e-02 -2.823600e-02 4.024800e-02 
-5.430000e-02 -3.186800e-02 4.472000e-02 
-5.580400e-02 -2.823600e-02 4.472000e-02 
-5.430000e-02 -3.148400e-02 4.919200e-02 
-5.532300e-02 -2.823600e-02 4.919200e-02 
-5.430000e-02 -2.823600e-02 5.000000e-02 
-4.995600e-02 -2.823600e-02 -5.000000e-02 
-4.995600e-02 -2.823600e-02 5.000000e-02 
-4.561200e-02 -2.823600e-02 -5.000000e-02 
-4.561200e-02 -2.823600e-02 5.000000e-02 
-4.126800e-02 -2.823600e-02 -5.000000e-02 
-4.126800e-02 -2.823600e-02 5.000000e-02 
-3.692400e-02 -2.823600e-02 -5.000000e-02 
-3.692400e-02 -2.823600e-02 5.000000e-02 
-3.258000e-02 -2.823600e-02 -5.000000e-02 
-3.258000e-02 -2.823600e-02 5.000000e-02 
-2.823600e-02 -2.823600e-02 -5.000000e-02 
-2.823600e-02 -2.823600e-02 5.000000e-02 
-2.389200e-02 -2.823600e-02 -5.000000e-02 
-2.389200e-02 -2.823600e-02 5.000000e-02 
-1.954800e-02 -2.823600e-02 -5.000000e-02 
-1.954800e-02 -2.823600e-02 5.000000e-02 
-1.520400e-02 -2.823600e-02 -5.000000e-02 
-1.520400e-02 -2.823600e-02 5.000000e-02 
-1.086000e-02 -2.823600e-02 -5.000000e-02 
-1.086000e-02 -2.823600e-02 5.000000e-02 
-6.516000e-03 -2.823600e-02 -5.000000e-02 
-6.516000e-03 -2.823600e-02 5.000000e-02 
-2.172000e-03 -2.823600e-02 -5.000000e-02 
-2.172000e-03 -2.823600e-02 5.000000e-02 
2.172000e-03 -2.823600e-02 -5.000000e-02 
2.172000e-03 -2.823600e-02 5.000000e-02 
6.516000e-03 -2.823600e-02 -5.000000e-02 
6.516000e-03 -2.823600e-02 5.000000e-02 
1.086000e-02 -2.823600e-02 -5.000000e-02 
1.086000e-02 -2.823600e-02 5.000000e-02 
1.520400e-02 -2.823600e-02 -5.000000e-02 
1.520400e-02 -2.823600e-02 5.000000e-02 
1.954800e-02 -2.823600e-02 -5.000000e-02 
1.954800e-02 -2.823600e-02 5.000000e-02 
2.389200e-02 -2.823600e-02 -5.000000e-02 
2.389200e-02 -2.823600e-02 5.000000e-02 
2.823600e-02 -2.823600e-02 -5.000000e-02 
2.823600e-02 -2.823600e-02 5.000000e-02 
3.258000e-02 -2.823600e-02 -5.000000e-02 
3.258000e-02 -2.823600e-02 5.000000e-02 
3.692400e-02 -2.823600e-02 -5.000000e-02 
3.692400e-02 -2.823600e-02 5.000000e-02 
4.126800e-02 -2.823600e-02 -5.000000e-02 
4.126800e-02 -2.823600e-02 5.000000e-02 
4.561200e-02 -2.823600e-02 -5.000000e-02 
4.561200e-02 -2.823600e-02 5.000000e-02 
4.995600e-02 -2.823600e-02 -5.000000e-02 
4.995600e-02 -2.823600e-02 5.000000e-02 
5.430000e-02 -3.148400e-02 -4.919200e-02 
5.430000e-02 -2.823600e-02 -5.000000e-02 
5.430000e-02 -3.186800e-02 -4.472000e-02 
5.430000e-02 -3.186800e-02 -4.024800e-02 
5.430000e-02 -3.186800e-02 -3.577600e-02 
5.430000e-02 -3.186800e-02 -3.130400e-02 
5.430000e-02 -3.186800e-02 -2.683200e-02 
5.430000e-02 -3.186800e-02 -2.236000e-02 
5.430000e-02 -3.186800e-02 -1.788800e-02 
5.430000e-02 -3.186800e-02 -1.341600e-02 
5.430000e-02 -3.186800e-02 -8.944000e-03 
5.430000e-02 -3.186800e-02 -4.472000e-03 
5.430000e-02 -3.186800e-02 0.000000e+00 
5.430000e-02 -3.186800e-02 4.472000e-03 
5.430000e-02 -3.186800e-02 8.944000e-03 
5.430000e-02 -3.186800e-02 1.341600e-02 
5.430000e-02 -3.186800e-02 1.788800e-02 
5.430000e-02 -3.186800e-02 2.236000e-02 
5.430000e-02 -3.186800e-02 2.683200e-02 
5.430000e-02 -3.186800e-02 3.130400e-02 
5.430000e-02 -3.186800e-02 3.577600e-02 
5.430000e-02 -3.186800e-02 4.024800e-02 
5.430000e-02 -3.186800e-02 4.472000e-02 
5.430000e-02 -3.148400e-02 4.919200e-02 
5.430000e-02 -2.823600e-02 5.000000e-02 
5.532300e-02 -2.823600e-02 -4.919200e-02 
5.580400e-02 -2.823600e-02 -4.472000e-02 
5.580400e-02 -2.823600e-02 -4.024800e-02 
5.580400e-02 -2.823600e-02 -3.577600e-02 
5.580400e-02 -2.823600e-02 -3.130400e-02 
5.580400e-02 -2.823600e-02 -2.683200e-02 
5.580400e-02 -2.823600e-02 -2.236000e-02 
5.580400e-02 -2.823600e-02 -1.788800e-02 
5.580400e-02 -2.823600e-02 -1.341600e-02 
5.580400e-02 -2.823600e-02 -8.944000e-03 
5.580400e-02 -2.823600e-02 -4.472000e-03 
5.580400e-02 -2.823600e-02 0.000000e+00 
5.580400e-02 -2.823600e-02 4.472000e-03 
5.580400e-02 -2.823600e-02 8.944000e-03 
5.580400e-02 -2.823600e-02 1.341600e-02 
5.580400e-02 -2.823600e-02 1.788800e-02 
5.580400e-02 -2.823600e-02 2.236000e-02 
5.580400e-02 -2.823600e-02 2.683200e-02 
5.580400e-02 -2.823600e-02 3.130400e-02 
5.580400e-02 -2.823600e-02 3.577600e-02 
5.580400e-02 -2.823600e-02 4.024800e-02 
5.580400e-02 -2.823600e-02 4.472000e-02 
5.532300e-02 -2.823600e-02 4.919200e-02 
-5.430000e-02 -2.389200e-02 -5.000000e-02 
-5.628400e-02 -2.389200e-02 -4.919200e-02 
-5.760400e-02 -2.389200e-02 -4.472000e-02 
-5.760400e-02 -2.389200e-02 -4.024800e-02 
-5.760400e-02 -2.389200e-02 -3.577600e-02 
-5.760400e-02 -2.389200e-02 -3.130400e-02 
-5.760400e-02 -2.389200e-02 -2.683200e-02 
-5.760400e-02 -2.389200e-02 -2.236000e-02 
-5.760400e-02 -2.389200e-02 -1.788800e-02 
-5.760400e-02 -2.389200e-02 -1.341600e-02 
-5.760400e-02 -2.389200e-02 -8.944000e-03 
-5.760400e-02 -2.389200e-02 -4.472000e-03 
-5.760400e-02 -2.389200e-02 0.000000e+00 
-5.760400e-02 -2.389200e-02 4.472000e-03 
-5.760400e-02 -2.389200e-02 8.944000e-03 
-5.760400e-02 -2.389200e-02 1.341600e-02 
-5.760400e-02 -2.389200e-02 1.788800e-02 
-5.760400e-02 -2.389200e-02 2.236000e-02 
-5.760400e-02 -2.389200e-02 2.683200e-02 
-5.760400e-02 -2.389200e-02 3.130400e-02 
-5.760400e-02 -2.389200e-02 3.577600e-02 
-5.760400e-02 -2.389200e-02 4.024800e-02 
-5.760400e-02 -2.389200e-02 4.472000e-02 
-5.628400e-02 -2.389200e-02 4.919200e-02 
-5.430000e-02 -2.389200e-02 5.000000e-02 
-4.995600e-02 -2.389200e-02 -5.000000e-02 
-4.995600e-02 -2.389200e-02 5.000000e-02 
-4.561200e-02 -2.389200e-02 -5.000000e-02 
-4.561200e-02 -2.389200e-02 5.000000e-02 
-4.126800e-02 -2.389200e-02 -5.000000e-02 
-4.126800e-02 -2.389200e-02 5.000000e-02 
-3.692400e-02 -2.389200e-02 -5.000000e-02 
-3.692400e-02 -2.389200e-02 5.000000e-02 
-3.258000e-02 -2.389200e-02 -5.000000e-02 
-3.258000e-02 -2.389200e-02 5.000000e-02 
-2.823600e-02 -2.389200e-02 -5.000000e-02 
-2.823600e-02 -2.389200e-02 5.000000e-02 
-2.389200e-02 -2.389200e-02 -5.000000e-02 
-2.389200e-02 -2.389200e-02 5.000000e-02 
-1.954800e-02 -2.389200e-02 -5.000000e-02 
-1.954800e-02 -2.389200e-02 5.000000e-02 
-1.520400e-02 -2.389200e-02 -5.000000e-02 
-1.520400e-02 -2.389200e-02 5.000000e-02 
-1.086000e-02 -2.389200e-02 -5.000000e-02 
-1.086000e-02 -2.389200e-02 5.000000e-02 
-6.516000e-03 -2.389200e-02 -5.000000e-02 
-6.516000e-03 -2.389200e-02 5.000000e-02 
-2.172000e-03 -2.389200e-02 -5.000000e-02 
-2.172000e-03 -2.389200e-02 5.000000e-02 
2.172000e-03 -2.389200e-02 -5.000000e-02 
2.172000e-03 -2.389200e-02 5.000000e-02 
6.516000e-03 -2.389200e-02 -5.000000e-02 
6.516000e-03 -2.389200e-02 5.000000e-02 
1.086000e-02 -2.389200e-02 -5.000000e-02 
1.086000e-02 -2.389200e-02 5.000000e-02 
1.520400e-02 -2.389200e-02 -5.000000e-02 
1.520400e-02 -2.389200e-02 5.000000e-02 
1.954800e-02 -2.389200e-02 -5.000000e-02 
1.954800e-02 -2.389200e-02 5.000000e-02 
2.389200e-02 -2.389200e-02 -5.000000e-02 
2.389200e-02 -2.389200e-02 5.000000e-02 
2.823600e-02 -2.389200e-02 -5.000000e-02 
2.823600e-02 -2.389200e-02 5.000000e-02 
3.258000e-02 -2.389200e-02 -5.000000e-02 
3.258000e-02 -2.389200e-02 5.000000e-02 
3.692400e-02 -2.389200e-02 -5.000000e-02 
3.692400e-02 -2.389200e-02 5.000000e-02 
4.126800e-02 -2.389200e-02 -5.000000e-02 
4.126800e-02 -2.389200e-02 5.000000e-02 
4.561200e-02 -2.389200e-02 -5.000000e-02 
4.561200e-02 -2.389200e-02 5.000000e-02 
4.995600e-02 -2.389200e-02 -5.000000e-02 
4.995600e-02 -2.389200e-02 5.000000e-02 
5.430000e-02 -2.389200e-02 -5.000000e-02 
5.430000e-02 -2.389200e-02 5.000000e-02 
5.628400e-02 -2.389200e-02 -4.919200e-02 
5.760400e-02 -2.389200e-02 -4.472000e-02 
5.760400e-02 -2.389200e-02 -4.024800e-02 
5.760400e-02 -2.389200e-02 -3.577600e-02 
5.760400e-02 -2.389200e-02 -3.130400e-02 
5.760400e-02 -2.389200e-02 -2.683200e-02 
5.760400e-02 -2.389200e-02 -2.236000e-02 
5.760400e-02 -2.389200e-02 -1.788800e-02 
5.760400e-02 -2.389200e-02 -1.341600e-02 
5.760400e-02 -2.389200e-02 -8.944000e-03 
5.760400e-02 -2.389200e-02 -4.472000e-03 
5.760400e-02 -2.389200e-02 0.000000e+00 
5.760400e-02 -2.389200e-02 4.472000e-03 
5.760400e-02 -2.389200e-02 8.944000e-03 
5.760400e-02 -2.389200e-02 1.341600e-02 
5.760400e-02 -2.389200e-02 1.788800e-02 
5.760400e-02 -2.389200e-02 2.236000e-02 
5.760400e-02 -2.389200e-02 2.683200e-02 
5.760400e-02 -2.389200e-02 3.130400e-02 
5.760400e-02 -2.389200e-02 3.577600e-02 
5.760400e-02 -2.389200e-02 4.024800e-02 
5.760400e-02 -2.389200e-02 4.472000e-02 
5.628400e-02 -2.389200e-02 4.919200e-02 
-5.864400e-02 -1.954800e-02 -4.991000e-02 
-5.864400e-02 -2.138000e-02 -4.919200e-02 
-5.940300e-02 -1.954800e-02 -4.919200e-02 
-5.864400e-02 -2.138000e-02 -4.472000e-02 
-5.940300e-02 -1.954800e-02 -4.472000e-02 
-5.864400e-02 -2.138000e-02 -4.024800e-02 
-5.940300e-02 -1.954800e-02 -4.024800e-02 
-5.864400e-02 -2.138000e-02 -3.577600e-02 
-5.940300e-02 -1.954800e-02 -3.577600e-02 
-5.864400e-02 -2.138000e-02 -3.130400e-02 
-5.940300e-02 -1.954800e-02 -3.130400e-02 
-5.864400e-02 -2.138000e-02 -2.683200e-02 
-5.940300e-02 -1.954800e-02 -2.683200e-02 
-5.864400e-02 -2.138000e-02 -2.236000e-02 
-5.940300e-02 -1.954800e-02 -2.236000e-02 
-5.864400e-02 -2.138000e-02 -1.788800e-02 
-5.940300e-02 -1.954800e-02 -1.788800e-02 
-5.864400e-02 -2.138000e-02 -1.341600e-02 
-5.940300e-02 -1.954800e-02 -1.341600e-02 
-5.864400e-02 -2.138000e-02 -8.944000e-03 
-5.940300e-02 -1.954800e-02 -8.944000e-03 
-5.864400e-02 -2.138000e-02 -4.472000e-03 
-5.940300e-02 -1.954800e-02 -4.472000e-03 
-5.864400e-02 -2.138000e-02 0.000000e+00 
-5.940300e-02 -1.954800e-02 0.000000e+00 
-5.864400e-02 -2.138000e-02 4.472000e-03 
-5.940300e-02 -1.954800e-02 4.472000e-03 
-5.864400e-02 -2.138000e-02 8.944000e-03 
-5.940300e-02 -1.954800e-02 8.944000e-03 
-5.864400e-02 -2.138000e-02 1.341600e-02 
-5.940300e-02 -1.954800e-02 1.341600e-02 
-5.864400e-02 -2.138000e-02 1.788800e-02 
-5.940300e-02 -1.954800e-02 1.788800e-02 
-5.864400e-02 -2.138000e-02 2.236000e-02 
-5.940300e-02 -1.954800e-02 2.236000e-02 
-5.864400e-02 -2.138000e-02 2.683200e-02 
-5.940300e-02 -1.954800e-02 2.683200e-02 
-5.864400e-02 -2.138000e-02 3.130400e-02 
-5.940300e-02 -1.954800e-02 3.130400e-02 
-5.864400e-02 -2.138000e-02 3.577600e-02 
-5.940300e-02 -1.954800e-02 3.577600e-02 
-5.864400e-02 -2.138000e-02 4.024800e-02 
-5.940300e-02 -1.954800e-02 4.024800e-02 
-5.864400e-02 -2.138000e-02 4.472000e-02 
-5.940300e-02 -1.954800e-02 4.472000e-02 
-5.864400e-02 -2.138000e-02 4.919200e-02 
-5.940300e-02 -1.954800e-02 4.919200e-02 
-5.864400e-02 -1.954800e-02 4.991000e-02 
-5.430000e-02 -1.954800e-02 -5.000000e-02 
-5.430000e-02 -1.954800e-02 5.000000e-02 
-4.995600e-02 -1.954800e-02 -5.000000e-02 
-4.995600e-02 -1.954800e-02 5.000000e-02 
-4.561200e-02 -1.954800e-02 -5.000000e-02 
-4.561200e-02 -1.954800e-02 5.000000e-02 
-4.126800e-02 -1.954800e-02 -5.000000e-02 
-4.126800e-02 -1.954800e-02 5.000000e-02 
-3.692400e-02 -1.954800e-02 -5.000000e-02 
-3.692400e-02 -1.954800e-02 5.000000e-02 
-3.258000e-02 -1.954800e-02 -5.000000e-02 
-3.258000e-02 -1.954800e-02 5.000000e-02 
-2.823600e-02 -1.954800e-02 -5.000000e-02 
-2.823600e-02 -1.954800e-02 5.000000e-02 
-2.389200e-02 -1.954800e-02 -5.000000e-02 
-2.389200e-02 -1.954800e-02 5.000000e-02 
-1.954800e-02 -1.954800e-02 -5.000000e-02 
-1.954800e-02 -1.954800e-02 5.000000e-02 
-1.520400e-02 -1.954800e-02 -5.000000e-02 
-1.520400e-02 -1.954800e-02 5.000000e-02 
-1.086000e-02 -1.954800e-02 -5.000000e-02 
-1.086000e-02 -1.954800e-02 5.000000e-02 
-6.516000e-03 -1.954800e-02 -5.000000e-02 
-6.516000e-03 -1.954800e-02 5.000000e-02 
-2.172000e-03 -1.954800e-02 -5.000000e-02 
-2.172000e-03 -1.954800e-02 5.000000e-02 
2.172000e-03 -1.954800e-02 -5.000000e-02 
2.172000e-03 -1.954800e-02 5.000000e-02 
6.516000e-03 -1.954800e-02 -5.000000e-02 
6.516000e-03 -1.954800e-02 5.000000e-02 
1.086000e-02 -1.954800e-02 -5.000000e-02 
1.086000e-02 -1.954800e-02 5.000000e-02 
1.520400e-02 -1.954800e-02 -5.000000e-02 
1.520400e-02 -1.954800e-02 5.000000e-02 
1.954800e-02 -1.954800e-02 -5.000000e-02 
1.954800e-02 -1.954800e-02 5.000000e-02 
2.389200e-02 -1.954800e-02 -5.000000e-02 
2.389200e-02 -1.954800e-02 5.000000e-02 
2.823600e-02 -1.954800e-02 -5.000000e-02 
2.823600e-02 -1.954800e-02 5.000000e-02 
3.258000e-02 -1.954800e-02 -5.000000e-02 
3.258000e-02 -1.954800e-02 5.000000e-02 
3.692400e-02 -1.954800e-02 -5.000000e-02 
3.692400e-02 -1.954800e-02 5.000000e-02 
4.126800e-02 -1.954800e-02 -5.000000e-02 
4.126800e-02 -1.954800e-02 5.000000e-02 
4.561200e-02 -1.954800e-02 -5.000000e-02 
4.561200e-02 -1.954800e-02 5.000000e-02 
4.995600e-02 -1.954800e-02 -5.000000e-02 
4.995600e-02 -1.954800e-02 5.000000e-02 
5.430000e-02 -1.954800e-02 -5.000000e-02 
5.430000e-02 -1.954800e-02 5.000000e-02 
5.864400e-02 -2.138000e-02 -4.919200e-02 
5.864400e-02 -1.954800e-02 -4.991000e-02 
5.864400e-02 -2.138000e-02 -4.472000e-02 
5.864400e-02 -2.138000e-02 -4.024800e-02 
5.864400e-02 -2.138000e-02 -3.577600e-02 
5.864400e-02 -2.138000e-02 -3.130400e-02 
5.864400e-02 -2.138000e-02 -2.683200e-02 
5.864400e-02 -2.138000e-02 -2.236000e-02 
5.864400e-02 -2.138000e-02 -1.788800e-02 
5.864400e-02 -2.138000e-02 -1.341600e-02 
5.864400e-02 -2.138000e-02 -8.944000e-03 
5.864400e-02 -2.138000e-02 -4.472000e-03 
5.864400e-02 -2.138000e-02 0.000000e+00 
5.864400e-02 -2.138000e-02 4.472000e-03 
5.864400e-02 -2.138000e-02 8.944000e-03 
5.864400e-02 -2.138000e-02 1.341600e-02 
5.864400e-02 -2.138000e-02 1.788800e-02 
5.864400e-02 -2.138000e-02 2.236000e-02 
5.864400e-02 -2.138000e-02 2.683200e-02 
5.864400e-02 -2.138000e-02 3.130400e-02 
5.864400e-02 -2.138000e-02 3.577600e-02 
5.864400e-02 -2.138000e-02 4.024800e-02 
5.864400e-02 -2.138000e-02 4.472000e-02 
5.864400e-02 -2.138000e-02 4.919200e-02 
5.864400e-02 -1.954800e-02 4.991000e-02 
5.940300e-02 -1.954800e-02 -4.919200e-02 
5.940300e-02 -1.954800e-02 -4.472000e-02 
5.940300e-02 -1.954800e-02 -4.024800e-02 
5.940300e-02 -1.954800e-02 -3.577600e-02 
5.940300e-02 -1.954800e-02 -3.130400e-02 
5.940300e-02 -1.954800e-02 -2.683200e-02 
5.940300e-02 -1.954800e-02 -2.236000e-02 
5.940300e-02 -1.954800e-02 -1.788800e-02 
5.940300e-02 -1.954800e-02 -1.341600e-02 
5.940300e-02 -1.954800e-02 -8.944000e-03 
5.940300e-02 -1.954800e-02 -4.472000e-03 
5.940300e-02 -1.954800e-02 0.000000e+00 
5.940300e-02 -1.954800e-02 4.472000e-03 
5.940300e-02 -1.954800e-02 8.944000e-03 
5.940300e-02 -1.954800e-02 1.341600e-02 
5.940300e-02 -1.954800e-02 1.788800e-02 
5.940300e-02 -1.954800e-02 2.236000e-02 
5.940300e-02 -1.954800e-02 2.683200e-02 
5.940300e-02 -1.954800e-02 3.130400e-02 
5.940300e-02 -1.954800e-02 3.577600e-02 
5.940300e-02 -1.954800e-02 4.024800e-02 
5.940300e-02 -1.954800e-02 4.472000e-02 
5.940300e-02 -1.954800e-02 4.919200e-02 
-5.864400e-02 -1.520400e-02 -5.000000e-02 
-6.007200e-02 -1.520400e-02 -4.919200e-02 
-6.120200e-02 -1.520400e-02 -4.472000e-02 
-6.120200e-02 -1.520400e-02 -4.024800e-02 
-6.120200e-02 -1.520400e-02 -3.577600e-02 
-6.120200e-02 -1.520400e-02 -3.130400e-02 
-6.120200e-02 -1.520400e-02 -2.683200e-02 
-6.120200e-02 -1.520400e-02 -2.236000e-02 
-6.120200e-02 -1.520400e-02 -1.788800e-02 
-6.120200e-02 -1.520400e-02 -1.341600e-02 
-6.120200e-02 -1.520400e-02 -8.944000e-03 
-6.120200e-02 -1.520400e-02 -4.472000e-03 
-6.120200e-02 -1.520400e-02 0.000000e+00 
-6.120200e-02 -1.520400e-02 4.472000e-03 
-6.120200e-02 -1.520400e-02 8.944000e-03 
-6.120200e-02 -1.520400e-02 1.341600e-02 
-6.120200e-02 -1.520400e-02 1.788800e-02 
-6.120200e-02 -1.520400e-02 2.236000e-02 
-6.120200e-02 -1.520400e-02 2.683200e-02 
-6.120200e-02 -1.520400e-02 3.130400e-02 
-6.120200e-02 -1.520400e-02 3.577600e-02 
-6.120200e-02 -1.520400e-02 4.024800e-02 
-6.120200e-02 -1.520400e-02 4.472000e-02 
-6.007200e-02 -1.520400e-02 4.919200e-02 
-5.864400e-02 -1.520400e-02 5.000000e-02 
-5.430000e-02 -1.520400e-02 -5.000000e-02 
-5.430000e-02 -1.520400e-02 5.000000e-02 
-4.995600e-02 -1.520400e-02 -5.000000e-02 
-4.995600e-02 -1.520400e-02 5.000000e-02 
-4.561200e-02 -1.520400e-02 -5.000000e-02 
-4.561200e-02 -1.520400e-02 5.000000e-02 
-4.126800e-02 -1.520400e-02 -5.000000e-02 
-4.126800e-02 -1.520400e-02 5.000000e-02 
-3.692400e-02 -1.520400e-02 -5.000000e-02 
-3.692400e-02 -1.520400e-02 5.000000e-02 
-3.258000e-02 -1.520400e-02 -5.000000e-02 
-3.258000e-02 -1.520400e-02 5.000000e-02 
-2.823600e-02 -1.520400e-02 -5.000000e-02 
-2.823600e-02 -1.520400e-02 5.000000e-02 
-2.389200e-02 -1.520400e-02 -5.000000e-02 
-2.389200e-02 -1.520400e-02 5.000000e-02 
-1.954800e-02 -1.520400e-02 -5.000000e-02 
-1.954800e-02 -1.520400e-02 5.000000e-02 
-1.520400e-02 -1.520400e-02 -5.000000e-02 
-1.520400e-02 -1.520400e-02 5.000000e-02 
-1.086000e-02 -1.520400e-02 -5.000000e-02 
-1.086000e-02 -1.520400e-02 5.000000e-02 
-6.516000e-03 -1.520400e-02 -5.000000e-02 
-6.516000e-03 -1.520400e-02 5.000000e-02 
-2.172000e-03 -1.520400e-02 -5.000000e-02 
-2.172000e-03 -1.520400e-02 5.000000e-02 
2.172000e-03 -1.520400e-02 -5.000000e-02 
2.172000e-03 -1.520400e-02 5.000000e-02 
6.516000e-03 -1.520400e-02 -5.000000e-02 
6.516000e-03 -1.520400e-02 5.000000e-02 
1.086000e-02 -1.520400e-02 -5.000000e-02 
1.086000e-02 -1.520400e-02 5.000000e-02 
1.520400e-02 -1.520400e-02 -5.000000e-02 
1.520400e-02 -1.520400e-02 5.000000e-02 
1.954800e-02 -1.520400e-02 -5.000000e-02 
1.954800e-02 -1.520400e-02 5.000000e-02 
2.389200e-02 -1.520400e-02 -5.000000e-02 
2.389200e-02 -1.520400e-02 5.000000e-02 
2.823600e-02 -1.520400e-02 -5.000000e-02 
2.823600e-02 -1.520400e-02 5.000000e-02 
3.258000e-02 -1.520400e-02 -5.000000e-02 
3.258000e-02 -1.520400e-02 5.000000e-02 
3.692400e-02 -1.520400e-02 -5.000000e-02 
3.692400e-02 -1.520400e-02 5.000000e-02 
4.126800e-02 -1.520400e-02 -5.000000e-02 
4.126800e-02 -1.520400e-02 5.000000e-02 
4.561200e-02 -1.520400e-02 -5.000000e-02 
4.561200e-02 -1.520400e-02 5.000000e-02 
4.995600e-02 -1.520400e-02 -5.000000e-02 
4.995600e-02 -1.520400e-02 5.000000e-02 
5.430000e-02 -1.520400e-02 -5.000000e-02 
5.430000e-02 -1.520400e-02 5.000000e-02 
5.864400e-02 -1.520400e-02 -5.000000e-02 
5.864400e-02 -1.520400e-02 5.000000e-02 
6.007200e-02 -1.520400e-02 -4.919200e-02 
6.120200e-02 -1.520400e-02 -4.472000e-02 
6.120200e-02 -1.520400e-02 -4.024800e-02 
6.120200e-02 -1.520400e-02 -3.577600e-02 
6.120200e-02 -1.520400e-02 -3.130400e-02 
6.120200e-02 -1.520400e-02 -2.683200e-02 
6.120200e-02 -1.520400e-02 -2.236000e-02 
6.120200e-02 -1.520400e-02 -1.788800e-02 
6.120200e-02 -1.520400e-02 -1.341600e-02 
6.120200e-02 -1.520400e-02 -8.944000e-03 
6.120200e-02 -1.520400e-02 -4.472000e-03 
6.120200e-02 -1.520400e-02 0.000000e+00 
6.120200e-02 -1.520400e-02 4.472000e-03 
6.120200e-02 -1.520400e-02 8.944000e-03 
6.120200e-02 -1.520400e-02 1.341600e-02 
6.120200e-02 -1.520400e-02 1.788800e-02 
6.120200e-02 -1.520400e-02 2.236000e-02 
6.120200e-02 -1.520400e-02 2.683200e-02 
6.120200e-02 -1.520400e-02 3.130400e-02 
6.120200e-02 -1.520400e-02 3.577600e-02 
6.120200e-02 -1.520400e-02 4.024800e-02 
6.120200e-02 -1.520400e-02 4.472000e-02 
6.007200e-02 -1.520400e-02 4.919200e-02 
-6.298800e-02 -1.086000e-02 -4.920700e-02 
-6.298800e-02 -1.089300e-02 -4.919200e-02 
-6.300200e-02 -1.086000e-02 -4.919200e-02 
-6.298800e-02 -1.089300e-02 -4.472000e-02 
-6.300200e-02 -1.086000e-02 -4.472000e-02 
-6.298800e-02 -1.089300e-02 -4.024800e-02 
-6.300200e-02 -1.086000e-02 -4.024800e-02 
-6.298800e-02 -1.089300e-02 -3.577600e-02 
-6.300200e-02 -1.086000e-02 -3.577600e-02 
-6.298800e-02 -1.089300e-02 -3.130400e-02 
-6.300200e-02 -1.086000e-02 -3.130400e-02 
-6.298800e-02 -1.089300e-02 -2.683200e-02 
-6.300200e-02 -1.086000e-02 -2.683200e-02 
-6.298800e-02 -1.089300e-02 -2.236000e-02 
-6.300200e-02 -1.086000e-02 -2.236000e-02 
-6.298800e-02 -1.089300e-02 -1.788800e-02 
-6.300200e-02 -1.086000e-02 -1.788800e-02 
-6.298800e-02 -1.089300e-02 -1.341600e-02 
-6.300200e-02 -1.086000e-02 -1.341600e-02 
-6.298800e-02 -1.089300e-02 -8.944000e-03 
-6.300200e-02 -1.086000e-02 -8.944000e-03 
-6.298800e-02 -1.089300e-02 -4.472000e-03 
-6.300200e-02 -1.086000e-02 -4.472000e-03 
-6.298800e-02 -1.089300e-02 0.000000e+00 
-6.300200e-02 -1.086000e-02 0.000000e+00 
-6.298800e-02 -1.089300e-02 4.472000e-03 
-6.300200e-02 -1.086000e-02 4.472000e-03 
-6.298800e-02 -1.089300e-02 8.944000e-03 
-6.300200e-02 -1.086000e-02 8.944000e-03 
-6.298800e-02 -1.089300e-02 1.341600e-02 
-6.300200e-02 -1.086000e-02 1.341600e-02 
-6.298800e-02 -1.089300e-02 1.788800e-02 
-6.300200e-02 -1.086000e-02 1.788800e-02 
-6.298800e-02 -1.089300e-02 2.236000e-02 
-6.300200e-02 -1.086000e-02 2.236000e-02 
-6.298800e-02 -1.089300e-02 2.683200e-02 
-6.300200e-02 -1.086000e-02 2.683200e-02 
-6.298800e-02 -1.089300e-02 3.130400e-02 
-6.300200e-02 -1.086000e-02 3.130400e-02 
-6.298800e-02 -1.089300e-02 3.577600e-02 
-6.300200e-02 -1.086000e-02 3.577600e-02 
-6.298800e-02 -1.089300e-02 4.024800e-02 
-6.300200e-02 -1.086000e-02 4.024800e-02 
-6.298800e-02 -1.089300e-02 4.472000e-02 
-6.300200e-02 -1.086000e-02 4.472000e-02 
-6.298800e-02 -1.089300e-02 4.919200e-02 
-6.300200e-02 -1.086000e-02 4.919200e-02 
-6.298800e-02 -1.086000e-02 4.920700e-02 
-5.864400e-02 -1.086000e-02 -5.000000e-02 
-5.864400e-02 -1.086000e-02 5.000000e-02 
-5.430000e-02 -1.086000e-02 -5.000000e-02 
-5.430000e-02 -1.086000e-02 5.000000e-02 
-4.995600e-02 -1.086000e-02 -5.000000e-02 
-4.995600e-02 -1.086000e-02 5.000000e-02 
-4.561200e-02 -1.086000e-02 -5.000000e-02 
-4.561200e-02 -1.086000e-02 5.000000e-02 
-4.126800e-02 -1.086000e-02 -5.000000e-02 
-4.126800e-02 -1.086000e-02 5.000000e-02 
-3.692400e-02 -1.086000e-02 -5.000000e-02 
-3.692400e-02 -1.086000e-02 5.000000e-02 
-3.258000e-02 -1.086000e-02 -5.000000e-02 
-3.258000e-02 -1.086000e-02 5.000000e-02 
-2.823600e-02 -1.086000e-02 -5.000000e-02 
-2.823600e-02 -1.086000e-02 5.000000e-02 
-2.389200e-02 -1.086000e-02 -5.000000e-02 
-2.389200e-02 -1.086000e-02 5.000000e-02 
-1.954800e-02 -1.086000e-02 -5.000000e-02 
-1.954800e-02 -1.086000e-02 5.000000e-02 
-1.520400e-02 -1.086000e-02 -5.000000e-02 
-1.520400e-02 -1.086000e-02 5.000000e-02 
-1.086000e-02 -1.086000e-02 -5.000000e-02 
-1.086000e-02 -1.086000e-02 5.000000e-02 
-6.516000e-03 -1.086000e-02 -5.000000e-02 
-6.516000e-03 -1.086000e-02 5.000000e-02 
-2.172000e-03 -1.086000e-02 -5.000000e-02 
-2.172000e-03 -1.086000e-02 5.000000e-02 
2.172000e-03 -1.086000e-02 -5.000000e-02 
2.172000e-03 -1.086000e-02 5.000000e-02 
6.516000e-03 -1.086000e-02 -5.000000e-02 
6.516000e-03 -1.086000e-02 5.000000e-02 
1.086000e-02 -1.086000e-02 -5.000000e-02 
1.086000e-02 -1.086000e-02 5.000000e-02 
1.520400e-02 -1.086000e-02 -5.000000e-02 
1.520400e-02 -1.086000e-02 5.000000e-02 
1.954800e-02 -1.086000e-02 -5.000000e-02 
1.954800e-02 -1.086000e-02 5.000000e-02 
2.389200e-02 -1.086000e-02 -5.000000e-02 
2.389200e-02 -1.086000e-02 5.000000e-02 
2.823600e-02 -1.086000e-02 -5.000000e-02 
2.823600e-02 -1.086000e-02 5.000000e-02 
3.258000e-02 -1.086000e-02 -5.000000e-02 
3.258000e-02 -1.086000e-02 5.000000e-02 
3.692400e-02 -1.086000e-02 -5.000000e-02 
3.692400e-02 -1.086000e-02 5.000000e-02 
4.126800e-02 -1.086000e-02 -5.000000e-02 
4.126800e-02 -1.086000e-02 5.000000e-02 
4.561200e-02 -1.086000e-02 -5.000000e-02 
4.561200e-02 -1.086000e-02 5.000000e-02 
4.995600e-02 -1.086000e-02 -5.000000e-02 
4.995600e-02 -1.086000e-02 5.000000e-02 
5.430000e-02 -1.086000e-02 -5.000000e-02 
5.430000e-02 -1.086000e-02 5.000000e-02 
5.864400e-02 -1.086000e-02 -5.000000e-02 
5.864400e-02 -1.086000e-02 5.000000e-02 
6.298800e-02 -1.089300e-02 -4.919200e-02 
6.298800e-02 -1.086000e-02 -4.920700e-02 
6.298800e-02 -1.089300e-02 -4.472000e-02 
6.298800e-02 -1.089300e-02 -4.024800e-02 
6.298800e-02 -1.089300e-02 -3.577600e-02 
6.298800e-02 -1.089300e-02 -3.130400e-02 
6.298800e-02 -1.089300e-02 -2.683200e-02 
6.298800e-02 -1.089300e-02 -2.236000e-02 
6.298800e-02 -1.089300e-02 -1.788800e-02 
6.298800e-02 -1.089300e-02 -1.341600e-02 
6.298800e-02 -1.089300e-02 -8.944000e-03 
6.298800e-02 -1.089300e-02 -4.472000e-03 
6.298800e-02 -1.089300e-02 0.000000e+00 
6.298800e-02 -1.089300e-02 4.472000e-03 
6.298800e-02 -1.089300e-02 8.944000e-03 
6.298800e-02 -1.089300e-02 1.341600e-02 
6.298800e-02 -1.089300e-02 1.788800e-02 
6.298800e-02 -1.089300e-02 2.236000e-02 
6.298800e-02 -1.089300e-02 2.683200e-02 
6.298800e-02 -1.089300e-02 3.130400e-02 
6.298800e-02 -1.089300e-02 3.577600e-02 
6.298800e-02 -1.089300e-02 4.024800e-02 
6.298800e-02 -1.089300e-02 4.472000e-02 
6.298800e-02 -1.089300e-02 4.919200e-02 
6.298800e-02 -1.086000e-02 4.920700e-02 
6.300200e-02 -1.086000e-02 -4.919200e-02 
6.300200e-02 -1.086000e-02 -4.472000e-02 
6.300200e-02 -1.086000e-02 -4.024800e-02 
6.300200e-02 -1.086000e-02 -3.577600e-02 
6.300200e-02 -1.086000e-02 -3.130400e-02 
6.300200e-02 -1.086000e-02 -2.683200e-02 
6.300200e-02 -1.086000e-02 -2.236000e-02 
6.300200e-02 -1.086000e-02 -1.788800e-02 
6.300200e-02 -1.086000e-02 -1.341600e-02 
6.300200e-02 -1.086000e-02 -8.944000e-03 
6.300200e-02 -1.086000e-02 -4.472000e-03 
6.300200e-02 -1.086000e-02 0.000000e+00 
6.300200e-02 -1.086000e-02 4.472000e-03 
6.300200e-02 -1.086000e-02 8.944000e-03 
6.300200e-02 -1.086000e-02 1.341600e-02 
6.300200e-02 -1.086000e-02 1.788800e-02 
6.300200e-02 -1.086000e-02 2.236000e-02 
6.300200e-02 -1.086000e-02 2.683200e-02 
6.300200e-02 -1.086000e-02 3.130400e-02 
6.300200e-02 -1.086000e-02 3.577600e-02 
6.300200e-02 -1.086000e-02 4.024800e-02 
6.300200e-02 -1.086000e-02 4.472000e-02 
6.300200e-02 -1.086000e-02 4.919200e-02 
-6.298800e-02 -6.516000e-03 -5.000000e-02 
-6.410400e-02 -6.516000e-03 -4.919200e-02 
-6.480100e-02 -6.516000e-03 -4.472000e-02 
-6.480100e-02 -6.516000e-03 -4.024800e-02 
-6.480100e-02 -6.516000e-03 -3.577600e-02 
-6.480100e-02 -6.516000e-03 -3.130400e-02 
-6.480100e-02 -6.516000e-03 -2.683200e-02 
-6.480100e-02 -6.516000e-03 -2.236000e-02 
-6.480100e-02 -6.516000e-03 -1.788800e-02 
-6.480100e-02 -6.516000e-03 -1.341600e-02 
-6.480100e-02 -6.516000e-03 -8.944000e-03 
-6.480100e-02 -6.516000e-03 -4.472000e-03 
-6.480100e-02 -6.516000e-03 0.000000e+00 
-6.480100e-02 -6.516000e-03 4.472000e-03 
-6.480100e-02 -6.516000e-03 8.944000e-03 
-6.480100e-02 -6.516000e-03 1.341600e-02 
-6.480100e-02 -6.516000e-03 1.788800e-02 
-6.480100e-02 -6.516000e-03 2.236000e-02 
-6.480100e-02 -6.516000e-03 2.683200e-02 
-6.480100e-02 -6.516000e-03 3.130400e-02 
-6.480100e-02 -6.516000e-03 3.577600e-02 
-6.480100e-02 -6.516000e-03 4.024800e-02 
-6.480100e-02 -6.516000e-03 4.472000e-02 
-6.410400e-02 -6.516000e-03 4.919200e-02 
-6.298800e-02 -6.516000e-03 5.000000e-02 
-5.864400e-02 -6.516000e-03 -5.000000e-02 
-5.864400e-02 -6.516000e-03 5.000000e-02 
-5.430000e-02 -6.516000e-03 -5.000000e-02 
-5.430000e-02 -6.516000e-03 5.000000e-02 
-4.995600e-02 -6.516000e-03 -5.000000e-02 
-4.995600e-02 -6.516000e-03 5.000000e-02 
-4.561200e-02 -6.516000e-03 -5.000000e-02 
-4.561200e-02 -6.516000e-03 5.000000e-02 
-4.126800e-02 -6.516000e-03 -5.000000e-02 
-4.126800e-02 -6.516000e-03 5.000000e-02 
-3.692400e-02 -6.516000e-03 -5.000000e-02 
-3.692400e-02 -6.516000e-03 5.000000e-02 
-3.258000e-02 -6.516000e-03 -5.000000e-02 
-3.258000e-02 -6.516000e-03 5.000000e-02 
-2.823600e-02 -6.516000e-03 -5.000000e-02 
-2.823600e-02 -6.516000e-03 5.000000e-02 
-2.389200e-02 -6.516000e-03 -5.000000e-02 
-2.389200e-02 -6.516000e-03 5.000000e-02 
-1.954800e-02 -6.516000e-03 -5.000000e-02 
-1.954800e-02 -6.516000e-03 5.000000e-02 
-1.520400e-02 -6.516000e-03 -5.000000e-02 
-1.520400e-02 -6.516000e-03 5.000000e-02 
-1.086000e-02 -6.516000e-03 -5.000000e-02 
-1.086000e-02 -6.516000e-03 5.000000e-02 
-6.516000e-03 -6.516000e-03 -5.000000e-02 
-6.516000e-03 -6.516000e-03 5.000000e-02 
-2.172000e-03 -6.516000e-03 -5.000000e-02 
-2.172000e-03 -6.516000e-03 5.000000e-02 
2.172000e-03 -6.516000e-03 -5.000000e-02 
2.172000e-03 -6.516000e-03 5.000000e-02 
6.516000e-03 -6.516000e-03 -5.000000e-02 
6.516000e-03 -6.516000e-03 5.000000e-02 
1.086000e-02 -6.516000e-03 -5.000000e-02 
1.086000e-02 -6.516000e-03 5.000000e-02 
1.520400e-02 -6.516000e-03 -5.000000e-02 
1.520400e-02 -6.516000e-03 5.000000e-02 
1.954800e-02 -6.516000e-03 -5.000000e-02 
1.954800e-02 -6.516000e-03 5.000000e-02 
2.389200e-02 -6.516000e-03 -5.000000e-02 
2.389200e-02 -6.516000e-03 5.000000e-02 
2.823600e-02 -6.516000e-03 -5.000000e-02 
2.823600e-02 -6.516000e-03 5.000000e-02 
3.258000e-02 -6.516000e-03 -5.000000e-02 
3.258000e-02 -6.516000e-03 5.000000e-02 
3.692400e-02 -6.516000e-03 -5.000000e-02 
3.692400e-02 -6.516000e-03 5.000000e-02 
4.126800e-02 -6.516000e-03 -5.000000e-02 
4.126800e-02 -6.516000e-03 5.000000e-02 
4.561200e-02 -6.516000e-03 -5.000000e-02 
4.561200e-02 -6.516000e-03 5.000000e-02 
4.995600e-02 -6.516000e-03 -5.000000e-02 
4.995600e-02 -6.516000e-03 5.000000e-02 
5.430000e-02 -6.516000e-03 -5.000000e-02 
5.430000e-02 -6.516000e-03 5.000000e-02 
5.864400e-02 -6.516000e-03 -5.000000e-02 
5.864400e-02 -6.516000e-03 5.000000e-02 
6.298800e-02 -6.516000e-03 -5.000000e-02 
6.298800e-02 -6.516000e-03 5.000000e-02 
6.410400e-02 -6.516000e-03 -4.919200e-02 
6.480100e-02 -6.516000e-03 -4.472000e-02 
6.480100e-02 -6.516000e-03 -4.024800e-02 
6.480100e-02 -6.516000e-03 -3.577600e-02 
6.480100e-02 -6.516000e-03 -3.130400e-02 
6.480100e-02 -6.516000e-03 -2.683200e-02 
6.480100e-02 -6.516000e-03 -2.236000e-02 
6.480100e-02 -6.516000e-03 -1.788800e-02 
6.480100e-02 -6.516000e-03 -1.341600e-02 
6.480100e-02 -6.516000e-03 -8.944000e-03 
6.480100e-02 -6.516000e-03 -4.472000e-03 
6.480100e-02 -6.516000e-03 0.000000e+00 
6.480100e-02 -6.516000e-03 4.472000e-03 
6.480100e-02 -6.516000e-03 8.944000e-03 
6.480100e-02 -6.516000e-03 1.341600e-02 
6.480100e-02 -6.516000e-03 1.788800e-02 
6.480100e-02 -6.516000e-03 2.236000e-02 
6.480100e-02 -6.516000e-03 2.683200e-02 
6.480100e-02 -6.516000e-03 3.130400e-02 
6.480100e-02 -6.516000e-03 3.577600e-02 
6.480100e-02 -6.516000e-03 4.024800e-02 
6.480100e-02 -6.516000e-03 4.472000e-02 
6.410400e-02 -6.516000e-03 4.919200e-02 
-6.298800e-02 -2.172000e-03 -5.000000e-02 
-6.535300e-02 -2.172000e-03 -4.919200e-02 
-6.660000e-02 -2.172000e-03 -4.472000e-02 
-6.660000e-02 -2.172000e-03 -4.024800e-02 
-6.660000e-02 -2.172000e-03 -3.577600e-02 
-6.660000e-02 -2.172000e-03 -3.130400e-02 
-6.660000e-02 -2.172000e-03 -2.683200e-02 
-6.660000e-02 -2.172000e-03 -2.236000e-02 
-6.660000e-02 -2.172000e-03 -1.788800e-02 
-6.660000e-02 -2.172000e-03 -1.341600e-02 
-6.660000e-02 -2.172000e-03 -8.944000e-03 
-6.660000e-02 -2.172000e-03 -4.472000e-03 
-6.660000e-02 -2.172000e-03 0.000000e+00 
-6.660000e-02 -2.172000e-03 4.472000e-03 
-6.660000e-02 -2.172000e-03 8.944000e-03 
-6.660000e-02 -2.172000e-03 1.341600e-02 
-6.660000e-02 -2.172000e-03 1.788800e-02 
-6.660000e-02 -2.172000e-03 2.236000e-02 
-6.660000e-02 -2.172000e-03 2.683200e-02 
-6.660000e-02 -2.172000e-03 3.130400e-02 
-6.660000e-02 -2.172000e-03 3.577600e-02 
-6.660000e-02 -2.172000e-03 4.024800e-02 
-6.660000e-02 -2.172000e-03 4.472000e-02 
-6.535300e-02 -2.172000e-03 4.919200e-02 
-6.298800e-02 -2.172000e-03 5.000000e-02 
-5.864400e-02 -2.172000e-03 -5.000000e-02 
-5.864400e-02 -2.172000e-03 5.000000e-02 
-5.430000e-02 -2.172000e-03 -5.000000e-02 
-5.430000e-02 -2.172000e-03 5.000000e-02 
-4.995600e-02 -2.172000e-03 -5.000000e-02 
-4.995600e-02 -2.172000e-03 5.000000e-02 
-4.561200e-02 -2.172000e-03 -5.000000e-02 
-4.561200e-02 -2.172000e-03 5.000000e-02 
-4.126800e-02 -2.172000e-03 -5.000000e-02 
-4.126800e-02 -2.172000e-03 5.000000e-02 
-3.692400e-02 -2.172000e-03 -5.000000e-02 
-3.692400e-02 -2.172000e-03 5.000000e-02 
-3.258000e-02 -2.172000e-03 -5.000000e-02 
-3.258000e-02 -2.172000e-03 5.000000e-02 
-2.823600e-02 -2.172000e-03 -5.000000e-02 
-2.823600e-02 -2.172000e-03 5.000000e-02 
-2.389200e-02 -2.172000e-03 -5.000000e-02 
-2.389200e-02 -2.172000e-03 5.000000e-02 
-1.954800e-02 -2.172000e-03 -5.000000e-02 
-1.954800e-02 -2.172000e-03 5.000000e-02 
-1.520400e-02 -2.172000e-03 -5.000000e-02 
-1.520400e-02 -2.172000e-03 5.000000e-02 
-1.086000e-02 -2.172000e-03 -5.000000e-02 
-1.086000e-02 -2.172000e-03 5.000000e-02 
-6.516000e-03 -2.172000e-03 -5.000000e-02 
-6.516000e-03 -2.172000e-03 5.000000e-02 
-2.172000e-03 -2.172000e-03 -5.000000e-02 
-2.172000e-03 -2.172000e-03 5.000000e-02 
2.172000e-03 -2.172000e-03 -5.000000e-02 
2.172000e-03 -2.172000e-03 5.000000e-02 
6.516000e-03 -2.172000e-03 -5.000000e-02 
6.516000e-03 -2.172000e-03 5.000000e-02 
1.086000e-02 -2.172000e-03 -5.000000e-02 
1.086000e-02 -2.172000e-03 5.000000e-02 
1.520400e-02 -2.172000e-03 -5.000000e-02 
1.520400e-02 -2.172000e-03 5.000000e-02 
1.954800e-02 -2.172000e-03 -5.000000e-02 
1.954800e-02 -2.172000e-03 5.000000e-02 
2.389200e-02 -2.172000e-03 -5.000000e-02 
2.389200e-02 -2.172000e-03 5.000000e-02 
2.823600e-02 -2.172000e-03 -5.000000e-02 
2.823600e-02 -2.172000e-03 5.000000e-02 
3.258000e-02 -2.172000e-03 -5.000000e-02 
3.258000e-02 -2.172000e-03 5.000000e-02 
3.692400e-02 -2.172000e-03 -5.000000e-02 
3.692400e-02 -2.172000e-03 5.000000e-02 
4.126800e-02 -2.172000e-03 -5.000000e-02 
4.126800e-02 -2.172000e-03 5.000000e-02 
4.561200e-02 -2.172000e-03 -5.000000e-02 
4.561200e-02 -2.172000e-03 5.000000e-02 
4.995600e-02 -2.172000e-03 -5.000000e-02 
4.995600e-02 -2.172000e-03 5.000000e-02 
5.430000e-02 -2.172000e-03 -5.000000e-02 
5.430000e-02 -2.172000e-03 5.000000e-02 
5.864400e-02 -2.172000e-03 -5.000000e-02 
5.864400e-02 -2.172000e-03 5.000000e-02 
6.298800e-02 -2.172000e-03 -5.000000e-02 
6.298800e-02 -2.172000e-03 5.000000e-02 
6.535300e-02 -2.172000e-03 -4.919200e-02 
6.660000e-02 -2.172000e-03 -4.472000e-02 
6.660000e-02 -2.172000e-03 -4.024800e-02 
6.660000e-02 -2.172000e-03 -3.577600e-02 
6.660000e-02 -2.172000e-03 -3.130400e-02 
6.660000e-02 -2.172000e-03 -2.683200e-02 
6.660000e-02 -2.172000e-03 -2.236000e-02 
6.660000e-02 -2.172000e-03 -1.788800e-02 
6.660000e-02 -2.172000e-03 -1.341600e-02 
6.660000e-02 -2.172000e-03 -8.944000e-03 
6.660000e-02 -2.172000e-03 -4.472000e-03 
6.660000e-02 -2.172000e-03 0.000000e+00 
6.660000e-02 -2.172000e-03 4.472000e-03 
6.660000e-02 -2.172000e-03 8.944000e-03 
6.660000e-02 -2.172000e-03 1.341600e-02 
6.660000e-02 -2.172000e-03 1.788800e-02 
6.660000e-02 -2.172000e-03 2.236000e-02 
6.660000e-02 -2.172000e-03 2.683200e-02 
6.660000e-02 -2.172000e-03 3.130400e-02 
6.660000e-02 -2.172000e-03 3.577600e-02 
6.660000e-02 -2.172000e-03 4.024800e-02 
6.660000e-02 -2.172000e-03 4.472000e-02 
6.535300e-02 -2.172000e-03 4.919200e-02 
-6.298800e-02 2.172000e-03 -5.000000e-02 
-6.535300e-02 2.172000e-03 -4.919200e-02 
-6.660000e-02 2.172000e-03 -4.472000e-02 
-6.660000e-02 2.172000e-03 -4.024800e-02 
-6.660000e-02 2.172000e-03 -3.577600e-02 
-6.660000e-02 2.172000e-03 -3.130400e-02 
-6.660000e-02 2.172000e-03 -2.683200e-02 
-6.660000e-02 2.172000e-03 -2.236000e-02 
-6.660000e-02 2.172000e-03 -1.788800e-02 
-6.660000e-02 2.172000e-03 -1.341600e-02 
-6.660000e-02 2.172000e-03 -8.944000e-03 
-6.660000e-02 2.172000e-03 -4.472000e-03 
-6.660000e-02 2.172000e-03 0.000000e+00 
-6.660000e-02 2.172000e-03 4.472000e-03 
-6.660000e-02 2.172000e-03 8.944000e-03 
-6.660000e-02 2.172000e-03 1.341600e-02 
-6.660000e-02 2.172000e-03 1.788800e-02 
-6.660000e-02 2.172000e-03 2.236000e-02 
-6.660000e-02 2.172000e-03 2.683200e-02 
-6.660000e-02 2.172000e-03 3.130400e-02 
-6.660000e-02 2.172000e-03 3.577600e-02 
-6.660000e-02 2.172000e-03 4.024800e-02 
-6.660000e-02 2.172000e-03 4.472000e-02 
-6.535300e-02 2.172000e-03 4.919200e-02 
-6.298800e-02 2.172000e-03 5.000000e-02 
-5.864400e-02 2.172000e-03 -5.000000e-02 
-5.864400e-02 2.172000e-03 5.000000e-02 
-5.430000e-02 2.172000e-03 -5.000000e-02 
-5.430000e-02 2.172000e-03 5.000000e-02 
-4.995600e-02 2.172000e-03 -5.000000e-02 
-4.995600e-02 2.172000e-03 5.000000e-02 
-4.561200e-02 2.172000e-03 -5.000000e-02 
-4.561200e-02 2.172000e-03 5.000000e-02 
-4.126800e-02 2.172000e-03 -5.000000e-02 
-4.126800e-02 2.172000e-03 5.000000e-02 
-3.692400e-02 2.172000e-03 -5.000000e-02 
-3.692400e-02 2.172000e-03 5.000000e-02 
-3.258000e-02 2.172000e-03 -5.000000e-02 
-3.258000e-02 2.172000e-03 5.000000e-02 
-2.823600e-02 2.172000e-03 -5.000000e-02 
-2.823600e-02 2.172000e-03 5.000000e-02 
-2.389200e-02 2.172000e-03 -5.000000e-02 
-2.389200e-02 2.172000e-03 5.000000e-02 
-1.954800e-02 2.172000e-03 -5.000000e-02 
-1.954800e-02 2.172000e-03 5.000000e-02 
-1.520400e-02 2.172000e-03 -5.000000e-02 
-1.520400e-02 2.172000e-03 5.000000e-02 
-1.086000e-02 2.172000e-03 -5.000000e-02 
-1.086000e-02 2.172000e-03 5.000000e-02 
-6.516000e-03 2.172000e-03 -5.000000e-02 
-6.516000e-03 2.172000e-03 5.000000e-02 
-2.172000e-03 2.172000e-03 -5.000000e-02 
-2.172000e-03 2.172000e-03 5.000000e-02 
2.172000e-03 2.172000e-03 -5.000000e-02 
2.172000e-03 2.172000e-03 5.000000e-02 
6.516000e-03 2.172000e-03 -5.000000e-02 
6.516000e-03 2.172000e-03 5.000000e-02 
1.086000e-02 2.172000e-03 -5.000000e-02 
1.086000e-02 2.172000e-03 5.000000e-02 
1.520400e-02 2.172000e-03 -5.000000e-02 
1.520400e-02 2.172000e-03 5.000000e-02 
1.954800e-02 2.172000e-03 -5.000000e-02 
1.954800e-02 2.172000e-03 5.000000e-02 
2.389200e-02 2.172000e-03 -5.000000e-02 
2.389200e-02 2.172000e-03 5.000000e-02 
2.823600e-02 2.172000e-03 -5.000000e-02 
2.823600e-02 2.172000e-03 5.000000e-02 
3.258000e-02 2.172000e-03 -5.000000e-02 
3.258000e-02 2.172000e-03 5.000000e-02 
3.692400e-02 2.172000e-03 -5.000000e-02 
3.692400e-02 2.172000e-03 5.000000e-02 
4.126800e-02 2.172000e-03 -5.000000e-02 
4.126800e-02 2.172000e-03 5.000000e-02 
4.561200e-02 2.172000e-03 -5.000000e-02 
4.561200e-02 2.172000e-03 5.000000e-02 
4.995600e-02 2.172000e-03 -5.000000e-02 
4.995600e-02 2.172000e-03 5.000000e-02 
5.430000e-02 2.172000e-03 -5.000000e-02 
5.430000e-02 2.172000e-03 5.000000e-02 
5.864400e-02 2.172000e-03 -5.000000e-02 
5.864400e-02 2.172000e-03 5.000000e-02 
6.298800e-02 2.172000e-03 -5.000000e-02 
6.298800e-02 2.172000e-03 5.000000e-02 
6.535300e-02 2.172000e-03 -4.919200e-02 
6.660000e-02 2.172000e-03 -4.472000e-02 
6.660000e-02 2.172000e-03 -4.024800e-02 
6.660000e-02 2.172000e-03 -3.577600e-02 
6.660000e-02 2.172000e-03 -3.130400e-02 
6.660000e-02 2.172000e-03 -2.683200e-02 
6.660000e-02 2.172000e-03 -2.236000e-02 
6.660000e-02 2.172000e-03 -1.788800e-02 
6.660000e-02 2.172000e-03 -1.341600e-02 
6.660000e-02 2.172000e-03 -8.944000e-03 
6.660000e-02 2.172000e-03 -4.472000e-03 
6.660000e-02 2.172000e-03 0.000000e+00 
6.660000e-02 2.172000e-03 4.472000e-03 
6.660000e-02 2.172000e-03 8.944000e-03 
6.660000e-02 2.172000e-03 1.341600e-02 
6.660000e-02 2.172000e-03 1.788800e-02 
6.660000e-02 2.172000e-03 2.236000e-02 
6.660000e-02 2.172000e-03 2.683200e-02 
6.660000e-02 2.172000e-03 3.130400e-02 
6.660000e-02 2.172000e-03 3.577600e-02 
6.660000e-02 2.172000e-03 4.024800e-02 
6.660000e-02 2.172000e-03 4.472000e-02 
6.535300e-02 2.172000e-03 4.919200e-02 
-6.298800e-02 6.516000e-03 -5.000000e-02 
-6.410400e-02 6.516000e-03 -4.919200e-02 
-6.480100e-02 6.516000e-03 -4.472000e-02 
-6.480100e-02 6.516000e-03 -4.024800e-02 
-6.480100e-02 6.516000e-03 -3.577600e-02 
-6.480100e-02 6.516000e-03 -3.130400e-02 
-6.480100e-02 6.516000e-03 -2.683200e-02 
-6.480100e-02 6.516000e-03 -2.236000e-02 
-6.480100e-02 6.516000e-03 -1.788800e-02 
-6.480100e-02 6.516000e-03 -1.341600e-02 
-6.480100e-02 6.516000e-03 -8.944000e-03 
-6.480100e-02 6.516000e-03 -4.472000e-03 
-6.480100e-02 6.516000e-03 0.000000e+00 
-6.480100e-02 6.516000e-03 4.472000e-03 
-6.480100e-02 6.516000e-03 8.944000e-03 
-6.480100e-02 6.516000e-03 1.341600e-02 
-6.480100e-02 6.516000e-03 1.788800e-02 
-6.480100e-02 6.516000e-03 2.236000e-02 
-6.480100e-02 6.516000e-03 2.683200e-02 
-6.480100e-02 6.516000e-03 3.130400e-02 
-6.480100e-02 6.516000e-03 3.577600e-02 
-6.480100e-02 6.516000e-03 4.024800e-02 
-6.480100e-02 6.516000e-03 4.472000e-02 
-6.410400e-02 6.516000e-03 4.919200e-02 
-6.298800e-02 6.516000e-03 5.000000e-02 
-5.864400e-02 6.516000e-03 -5.000000e-02 
-5.864400e-02 6.516000e-03 5.000000e-02 
-5.430000e-02 6.516000e-03 -5.000000e-02 
-5.430000e-02 6.516000e-03 5.000000e-02 
-4.995600e-02 6.516000e-03 -5.000000e-02 
-4.995600e-02 6.516000e-03 5.000000e-02 
-4.561200e-02 6.516000e-03 -5.000000e-02 
-4.561200e-02 6.516000e-03 5.000000e-02 
-4.126800e-02 6.516000e-03 -5.000000e-02 
-4.126800e-02 6.516000e-03 5.000000e-02 
-3.692400e-02 6.516000e-03 -5.000000e-02 
-3.692400e-02 6.516000e-03 5.000000e-02 
-3.258000e-02 6.516000e-03 -5.000000e-02 
-3.258000e-02 6.516000e-03 5.000000e-02 
-2.823600e-02 6.516000e-03 -5.000000e-02 
-2.823600e-02 6.516000e-03 5.000000e-02 
-2.389200e-02 6.516000e-03 -5.000000e-02 
-2.389200e-02 6.516000e-03 5.000000e-02 
-1.954800e-02 6.516000e-03 -5.000000e-02 
-1.954800e-02 6.516000e-03 5.000000e-02 
-1.520400e-02 6.516000e-03 -5.000000e-02 
-1.520400e-02 6.516000e-03 5.000000e-02 
-1.086000e-02 6.516000e-03 -5.000000e-02 
-1.086000e-02 6.516000e-03 5.000000e-02 
-6.516000e-03 6.516000e-03 -5.000000e-02 
-6.516000e-03 6.516000e-03 5.000000e-02 
-2.172000e-03 6.516000e-03 -5.000000e-02 
-2.172000e-03 6.516000e-03 5.000000e-02 
2.172000e-03 6.516000e-03 -5.000000e-02 
2.172000e-03 6.516000e-03 5.000000e-02 
6.516000e-03 6.516000e-03 -5.000000e-02 
6.516000e-03 6.516000e-03 5.000000e-02 
1.086000e-02 6.516000e-03 -5.000000e-02 
1.086000e-02 6.516000e-03 5.000000e-02 
1.520400e-02 6.516000e-03 -5.000000e-02 
1.520400e-02 6.516000e-03 5.000000e-02 
1.954800e-02 6.516000e-03 -5.000000e-02 
1.954800e-02 6.516000e-03 5.000000e-02 
2.389200e-02 6.516000e-03 -5.000000e-02 
2.389200e-02 6.516000e-03 5.000000e-02 
