# .PCD v.6 - Point Cloud Data file format
FIELDS x y z 
SIZE 4 4 4 
TYPE F F F 
COUNT 1 1 1 
WIDTH 1165
HEIGHT 1
POINTS 1165
DATA ascii
2.859000e-02 1.679100e-02 -7.091600e-03 
2.859000e-02 1.679100e-02 -4.255000e-03 
2.859000e-02 1.679100e-02 -1.418300e-03 
2.859000e-02 1.679100e-02 1.418300e-03 
2.859000e-02 1.679100e-02 4.255000e-03 
2.859000e-02 1.679100e-02 7.091600e-03 
2.859000e-02 1.679100e-02 9.928300e-03 
2.859000e-02 1.679100e-02 1.276500e-02 
2.859000e-02 1.679100e-02 1.560200e-02 
2.859000e-02 1.679100e-02 1.843800e-02 
2.859000e-02 1.679100e-02 2.127500e-02 
2.859000e-02 1.679100e-02 2.411200e-02 
2.859000e-02 1.679100e-02 2.694800e-02 
2.859000e-02 1.679100e-02 2.978500e-02 
2.859000e-02 1.679100e-02 3.262200e-02 
2.859000e-02 1.679100e-02 3.545800e-02 
2.859000e-02 1.679100e-02 3.829500e-02 
2.859000e-02 1.679100e-02 4.113200e-02 
2.859000e-02 1.679100e-02 4.396800e-02 
2.859000e-02 1.679100e-02 4.680500e-02 
2.844500e-02 1.679100e-02 4.964100e-02 
-2.798500e-02 1.750100e-02 -4.964100e-02 
-2.798500e-02 1.769500e-02 -4.680500e-02 
-2.798500e-02 1.769500e-02 -4.396800e-02 
-2.798500e-02 1.769500e-02 -4.113200e-02 
-2.798500e-02 1.769500e-02 -3.829500e-02 
-2.798500e-02 1.769500e-02 -3.545800e-02 
-2.798500e-02 1.769500e-02 -3.262200e-02 
-2.798500e-02 1.769500e-02 -2.978500e-02 
-2.798500e-02 1.769500e-02 -2.694800e-02 
-2.798500e-02 1.769500e-02 -2.411200e-02 
-2.798500e-02 1.769500e-02 -2.127500e-02 
-2.798500e-02 1.769500e-02 -1.843800e-02 
-2.798500e-02 1.769500e-02 -1.560200e-02 
-2.798500e-02 1.769500e-02 -1.276500e-02 
-2.798500e-02 1.769500e-02 -9.928300e-03 
-2.798500e-02 1.769500e-02 -7.091600e-03 
-2.798500e-02 1.769500e-02 -4.255000e-03 
-2.798500e-02 1.769500e-02 -1.418300e-03 
-2.798500e-02 1.769500e-02 1.418300e-03 
-2.798500e-02 1.769500e-02 4.255000e-03 
-2.798500e-02 1.769500e-02 7.091600e-03 
-2.798500e-02 1.769500e-02 9.928300e-03 
-2.798500e-02 1.769500e-02 1.276500e-02 
-2.798500e-02 1.769500e-02 1.560200e-02 
-2.798500e-02 1.769500e-02 1.843800e-02 
-2.798500e-02 1.769500e-02 2.127500e-02 
-2.798500e-02 1.769500e-02 2.411200e-02 
-2.798500e-02 1.769500e-02 2.694800e-02 
-2.798500e-02 1.769500e-02 2.978500e-02 
-2.798500e-02 1.769500e-02 3.262200e-02 
-2.798500e-02 1.769500e-02 3.545800e-02 
-2.798500e-02 1.769500e-02 3.829500e-02 
-2.798500e-02 1.769500e-02 4.113200e-02 
-2.798500e-02 1.769500e-02 4.396800e-02 
-2.798500e-02 1.769500e-02 4.680500e-02 
-2.798500e-02 1.750100e-02 4.964100e-02 
-2.589700e-02 1.959000e-02 -4.964100e-02 
-2.518700e-02 1.959000e-02 -5.000000e-02 
-2.671700e-02 1.959000e-02 -4.680500e-02 
-2.671700e-02 1.959000e-02 -4.396800e-02 
-2.671700e-02 1.959000e-02 -4.113200e-02 
-2.671700e-02 1.959000e-02 -3.829500e-02 
-2.671700e-02 1.959000e-02 -3.545800e-02 
-2.671700e-02 1.959000e-02 -3.262200e-02 
-2.671700e-02 1.959000e-02 -2.978500e-02 
-2.671700e-02 1.959000e-02 -2.694800e-02 
-2.671700e-02 1.959000e-02 -2.411200e-02 
-2.671700e-02 1.959000e-02 -2.127500e-02 
-2.671700e-02 1.959000e-02 -1.843800e-02 
-2.671700e-02 1.959000e-02 -1.560200e-02 
-2.671700e-02 1.959000e-02 -1.276500e-02 
-2.671700e-02 1.959000e-02 -9.928300e-03 
-2.671700e-02 1.959000e-02 -7.091600e-03 
-2.671700e-02 1.959000e-02 -4.255000e-03 
-2.671700e-02 1.959000e-02 -1.418300e-03 
-2.671700e-02 1.959000e-02 1.418300e-03 
-2.671700e-02 1.959000e-02 4.255000e-03 
-2.671700e-02 1.959000e-02 7.091600e-03 
-2.671700e-02 1.959000e-02 9.928300e-03 
-2.671700e-02 1.959000e-02 1.276500e-02 
-2.671700e-02 1.959000e-02 1.560200e-02 
-2.671700e-02 1.959000e-02 1.843800e-02 
-2.671700e-02 1.959000e-02 2.127500e-02 
-2.671700e-02 1.959000e-02 2.411200e-02 
-2.671700e-02 1.959000e-02 2.694800e-02 
-2.671700e-02 1.959000e-02 2.978500e-02 
-2.671700e-02 1.959000e-02 3.262200e-02 
-2.671700e-02 1.959000e-02 3.545800e-02 
-2.671700e-02 1.959000e-02 3.829500e-02 
-2.671700e-02 1.959000e-02 4.113200e-02 
-2.671700e-02 1.959000e-02 4.396800e-02 
-2.671700e-02 1.959000e-02 4.680500e-02 
-2.589700e-02 1.959000e-02 4.964100e-02 
-2.518700e-02 1.959000e-02 5.000000e-02 
-2.238800e-02 1.959000e-02 -5.000000e-02 
-2.238800e-02 1.959000e-02 5.000000e-02 
-1.959000e-02 1.959000e-02 -5.000000e-02 
-1.959000e-02 1.959000e-02 5.000000e-02 
-1.679100e-02 1.959000e-02 -5.000000e-02 
-1.679100e-02 1.959000e-02 5.000000e-02 
-1.399300e-02 1.959000e-02 -5.000000e-02 
-1.399300e-02 1.959000e-02 5.000000e-02 
-1.119400e-02 1.959000e-02 -5.000000e-02 
-1.119400e-02 1.959000e-02 5.000000e-02 
-8.395600e-03 1.959000e-02 -5.000000e-02 
-8.395600e-03 1.959000e-02 5.000000e-02 
-5.597000e-03 1.959000e-02 -5.000000e-02 
-5.597000e-03 1.959000e-02 5.000000e-02 
-2.798500e-03 1.959000e-02 -5.000000e-02 
-2.798500e-03 1.959000e-02 5.000000e-02 
0.000000e+00 1.959000e-02 -5.000000e-02 
0.000000e+00 1.959000e-02 5.000000e-02 
2.798500e-03 1.959000e-02 -5.000000e-02 
2.798500e-03 1.959000e-02 5.000000e-02 
5.597000e-03 1.959000e-02 -5.000000e-02 
5.597000e-03 1.959000e-02 5.000000e-02 
8.395600e-03 1.959000e-02 -5.000000e-02 
8.395600e-03 1.959000e-02 5.000000e-02 
1.119400e-02 1.959000e-02 -5.000000e-02 
1.119400e-02 1.959000e-02 5.000000e-02 
1.399300e-02 1.959000e-02 -5.000000e-02 
1.399300e-02 1.959000e-02 5.000000e-02 
1.679100e-02 1.959000e-02 -5.000000e-02 
1.679100e-02 1.959000e-02 5.000000e-02 
1.959000e-02 1.959000e-02 -5.000000e-02 
1.959000e-02 1.959000e-02 5.000000e-02 
2.238800e-02 1.959000e-02 -5.000000e-02 
2.238800e-02 1.959000e-02 5.000000e-02 
2.518700e-02 1.959000e-02 -5.000000e-02 
2.518700e-02 1.959000e-02 5.000000e-02 
2.589700e-02 1.959000e-02 -4.964100e-02 
2.798500e-02 1.750100e-02 -4.964100e-02 
2.671700e-02 1.959000e-02 -4.680500e-02 
2.798500e-02 1.769500e-02 -4.680500e-02 
2.671700e-02 1.959000e-02 -4.396800e-02 
2.798500e-02 1.769500e-02 -4.396800e-02 
2.671700e-02 1.959000e-02 -4.113200e-02 
2.798500e-02 1.769500e-02 -4.113200e-02 
2.671700e-02 1.959000e-02 -3.829500e-02 
2.798500e-02 1.769500e-02 -3.829500e-02 
2.671700e-02 1.959000e-02 -3.545800e-02 
2.798500e-02 1.769500e-02 -3.545800e-02 
2.671700e-02 1.959000e-02 -3.262200e-02 
2.798500e-02 1.769500e-02 -3.262200e-02 
2.671700e-02 1.959000e-02 -2.978500e-02 
2.798500e-02 1.769500e-02 -2.978500e-02 
2.671700e-02 1.959000e-02 -2.694800e-02 
2.798500e-02 1.769500e-02 -2.694800e-02 
2.671700e-02 1.959000e-02 -2.411200e-02 
2.798500e-02 1.769500e-02 -2.411200e-02 
2.671700e-02 1.959000e-02 -2.127500e-02 
2.798500e-02 1.769500e-02 -2.127500e-02 
2.671700e-02 1.959000e-02 -1.843800e-02 
2.798500e-02 1.769500e-02 -1.843800e-02 
2.671700e-02 1.959000e-02 -1.560200e-02 
2.798500e-02 1.769500e-02 -1.560200e-02 
2.671700e-02 1.959000e-02 -1.276500e-02 
2.798500e-02 1.769500e-02 -1.276500e-02 
2.671700e-02 1.959000e-02 -9.928300e-03 
2.798500e-02 1.769500e-02 -9.928300e-03 
2.671700e-02 1.959000e-02 -7.091600e-03 
2.798500e-02 1.769500e-02 -7.091600e-03 
2.671700e-02 1.959000e-02 -4.255000e-03 
2.798500e-02 1.769500e-02 -4.255000e-03 
2.671700e-02 1.959000e-02 -1.418300e-03 
2.798500e-02 1.769500e-02 -1.418300e-03 
2.671700e-02 1.959000e-02 1.418300e-03 
2.798500e-02 1.769500e-02 1.418300e-03 
2.671700e-02 1.959000e-02 4.255000e-03 
2.798500e-02 1.769500e-02 4.255000e-03 
2.671700e-02 1.959000e-02 7.091600e-03 
2.798500e-02 1.769500e-02 7.091600e-03 
2.671700e-02 1.959000e-02 9.928300e-03 
2.798500e-02 1.769500e-02 9.928300e-03 
2.671700e-02 1.959000e-02 1.276500e-02 
2.798500e-02 1.769500e-02 1.276500e-02 
2.671700e-02 1.959000e-02 1.560200e-02 
2.798500e-02 1.769500e-02 1.560200e-02 
2.671700e-02 1.959000e-02 1.843800e-02 
2.798500e-02 1.769500e-02 1.843800e-02 
2.671700e-02 1.959000e-02 2.127500e-02 
2.798500e-02 1.769500e-02 2.127500e-02 
2.671700e-02 1.959000e-02 2.411200e-02 
2.798500e-02 1.769500e-02 2.411200e-02 
2.671700e-02 1.959000e-02 2.694800e-02 
2.798500e-02 1.769500e-02 2.694800e-02 
2.671700e-02 1.959000e-02 2.978500e-02 
2.798500e-02 1.769500e-02 2.978500e-02 
2.671700e-02 1.959000e-02 3.262200e-02 
2.798500e-02 1.769500e-02 3.262200e-02 
2.671700e-02 1.959000e-02 3.545800e-02 
2.798500e-02 1.769500e-02 3.545800e-02 
2.671700e-02 1.959000e-02 3.829500e-02 
2.798500e-02 1.769500e-02 3.829500e-02 
2.671700e-02 1.959000e-02 4.113200e-02 
2.798500e-02 1.769500e-02 4.113200e-02 
2.671700e-02 1.959000e-02 4.396800e-02 
2.798500e-02 1.769500e-02 4.396800e-02 
2.671700e-02 1.959000e-02 4.680500e-02 
2.798500e-02 1.769500e-02 4.680500e-02 
2.589700e-02 1.959000e-02 4.964100e-02 
2.798500e-02 1.750100e-02 4.964100e-02 
-2.518700e-02 2.115100e-02 -4.964100e-02 
-2.518700e-02 2.187700e-02 -4.680500e-02 
-2.518700e-02 2.187700e-02 -4.396800e-02 
-2.518700e-02 2.187700e-02 -4.113200e-02 
-2.518700e-02 2.187700e-02 -3.829500e-02 
-2.518700e-02 2.187700e-02 -3.545800e-02 
-2.518700e-02 2.187700e-02 -3.262200e-02 
-2.518700e-02 2.187700e-02 -2.978500e-02 
-2.518700e-02 2.187700e-02 -2.694800e-02 
-2.518700e-02 2.187700e-02 -2.411200e-02 
-2.518700e-02 2.187700e-02 -2.127500e-02 
-2.518700e-02 2.187700e-02 -1.843800e-02 
-2.518700e-02 2.187700e-02 -1.560200e-02 
-2.518700e-02 2.187700e-02 -1.276500e-02 
-2.518700e-02 2.187700e-02 -9.928300e-03 
-2.518700e-02 2.187700e-02 -7.091600e-03 
-2.518700e-02 2.187700e-02 -4.255000e-03 
-2.518700e-02 2.187700e-02 -1.418300e-03 
-2.518700e-02 2.187700e-02 1.418300e-03 
-2.518700e-02 2.187700e-02 4.255000e-03 
-2.518700e-02 2.187700e-02 7.091600e-03 
-2.518700e-02 2.187700e-02 9.928300e-03 
-2.518700e-02 2.187700e-02 1.276500e-02 
-2.518700e-02 2.187700e-02 1.560200e-02 
-2.518700e-02 2.187700e-02 1.843800e-02 
-2.518700e-02 2.187700e-02 2.127500e-02 
-2.518700e-02 2.187700e-02 2.411200e-02 
-2.518700e-02 2.187700e-02 2.694800e-02 
-2.518700e-02 2.187700e-02 2.978500e-02 
-2.518700e-02 2.187700e-02 3.262200e-02 
-2.518700e-02 2.187700e-02 3.545800e-02 
-2.518700e-02 2.187700e-02 3.829500e-02 
-2.518700e-02 2.187700e-02 4.113200e-02 
-2.518700e-02 2.187700e-02 4.396800e-02 
-2.518700e-02 2.187700e-02 4.680500e-02 
-2.518700e-02 2.115100e-02 4.964100e-02 
-2.394900e-02 2.238800e-02 -4.964100e-02 
-2.238800e-02 2.238800e-02 -5.000000e-02 
-2.484500e-02 2.238800e-02 -4.680500e-02 
-2.484500e-02 2.238800e-02 -4.396800e-02 
-2.484500e-02 2.238800e-02 -4.113200e-02 
-2.484500e-02 2.238800e-02 -3.829500e-02 
-2.484500e-02 2.238800e-02 -3.545800e-02 
-2.484500e-02 2.238800e-02 -3.262200e-02 
-2.484500e-02 2.238800e-02 -2.978500e-02 
-2.484500e-02 2.238800e-02 -2.694800e-02 
-2.484500e-02 2.238800e-02 -2.411200e-02 
-2.484500e-02 2.238800e-02 -2.127500e-02 
-2.484500e-02 2.238800e-02 -1.843800e-02 
-2.484500e-02 2.238800e-02 -1.560200e-02 
-2.484500e-02 2.238800e-02 -1.276500e-02 
-2.484500e-02 2.238800e-02 -9.928300e-03 
-2.484500e-02 2.238800e-02 -7.091600e-03 
-2.484500e-02 2.238800e-02 -4.255000e-03 
-2.484500e-02 2.238800e-02 -1.418300e-03 
-2.484500e-02 2.238800e-02 1.418300e-03 
-2.484500e-02 2.238800e-02 4.255000e-03 
-2.484500e-02 2.238800e-02 7.091600e-03 
-2.484500e-02 2.238800e-02 9.928300e-03 
-2.484500e-02 2.238800e-02 1.276500e-02 
-2.484500e-02 2.238800e-02 1.560200e-02 
-2.484500e-02 2.238800e-02 1.843800e-02 
-2.484500e-02 2.238800e-02 2.127500e-02 
-2.484500e-02 2.238800e-02 2.411200e-02 
-2.484500e-02 2.238800e-02 2.694800e-02 
-2.484500e-02 2.238800e-02 2.978500e-02 
-2.484500e-02 2.238800e-02 3.262200e-02 
-2.484500e-02 2.238800e-02 3.545800e-02 
-2.484500e-02 2.238800e-02 3.829500e-02 
-2.484500e-02 2.238800e-02 4.113200e-02 
-2.484500e-02 2.238800e-02 4.396800e-02 
-2.484500e-02 2.238800e-02 4.680500e-02 
-2.394900e-02 2.238800e-02 4.964100e-02 
-2.238800e-02 2.238800e-02 5.000000e-02 
-1.959000e-02 2.238800e-02 -5.000000e-02 
-1.959000e-02 2.238800e-02 5.000000e-02 
-1.679100e-02 2.238800e-02 -5.000000e-02 
-1.679100e-02 2.238800e-02 5.000000e-02 
-1.399300e-02 2.238800e-02 -5.000000e-02 
-1.399300e-02 2.238800e-02 5.000000e-02 
-1.119400e-02 2.238800e-02 -5.000000e-02 
-1.119400e-02 2.238800e-02 5.000000e-02 
-8.395600e-03 2.238800e-02 -5.000000e-02 
-8.395600e-03 2.238800e-02 5.000000e-02 
-5.597000e-03 2.238800e-02 -5.000000e-02 
-5.597000e-03 2.238800e-02 5.000000e-02 
-2.798500e-03 2.238800e-02 -5.000000e-02 
-2.798500e-03 2.238800e-02 5.000000e-02 
0.000000e+00 2.238800e-02 -5.000000e-02 
0.000000e+00 2.238800e-02 5.000000e-02 
2.798500e-03 2.238800e-02 -5.000000e-02 
2.798500e-03 2.238800e-02 5.000000e-02 
5.597000e-03 2.238800e-02 -5.000000e-02 
5.597000e-03 2.238800e-02 5.000000e-02 
8.395600e-03 2.238800e-02 -5.000000e-02 
8.395600e-03 2.238800e-02 5.000000e-02 
1.119400e-02 2.238800e-02 -5.000000e-02 
1.119400e-02 2.238800e-02 5.000000e-02 
1.399300e-02 2.238800e-02 -5.000000e-02 
1.399300e-02 2.238800e-02 5.000000e-02 
1.679100e-02 2.238800e-02 -5.000000e-02 
1.679100e-02 2.238800e-02 5.000000e-02 
1.959000e-02 2.238800e-02 -5.000000e-02 
1.959000e-02 2.238800e-02 5.000000e-02 
2.238800e-02 2.238800e-02 -5.000000e-02 
2.238800e-02 2.238800e-02 5.000000e-02 
2.394900e-02 2.238800e-02 -4.964100e-02 
2.518700e-02 2.115100e-02 -4.964100e-02 
2.484500e-02 2.238800e-02 -4.680500e-02 
2.518700e-02 2.187700e-02 -4.680500e-02 
2.484500e-02 2.238800e-02 -4.396800e-02 
2.518700e-02 2.187700e-02 -4.396800e-02 
2.484500e-02 2.238800e-02 -4.113200e-02 
2.518700e-02 2.187700e-02 -4.113200e-02 
2.484500e-02 2.238800e-02 -3.829500e-02 
2.518700e-02 2.187700e-02 -3.829500e-02 
2.484500e-02 2.238800e-02 -3.545800e-02 
2.518700e-02 2.187700e-02 -3.545800e-02 
2.484500e-02 2.238800e-02 -3.262200e-02 
2.518700e-02 2.187700e-02 -3.262200e-02 
2.484500e-02 2.238800e-02 -2.978500e-02 
2.518700e-02 2.187700e-02 -2.978500e-02 
2.484500e-02 2.238800e-02 -2.694800e-02 
2.518700e-02 2.187700e-02 -2.694800e-02 
2.484500e-02 2.238800e-02 -2.411200e-02 
2.518700e-02 2.187700e-02 -2.411200e-02 
2.484500e-02 2.238800e-02 -2.127500e-02 
2.518700e-02 2.187700e-02 -2.127500e-02 
2.484500e-02 2.238800e-02 -1.843800e-02 
2.518700e-02 2.187700e-02 -1.843800e-02 
2.484500e-02 2.238800e-02 -1.560200e-02 
2.518700e-02 2.187700e-02 -1.560200e-02 
2.484500e-02 2.238800e-02 -1.276500e-02 
2.518700e-02 2.187700e-02 -1.276500e-02 
2.484500e-02 2.238800e-02 -9.928300e-03 
2.518700e-02 2.187700e-02 -9.928300e-03 
2.484500e-02 2.238800e-02 -7.091600e-03 
2.518700e-02 2.187700e-02 -7.091600e-03 
2.484500e-02 2.238800e-02 -4.255000e-03 
2.518700e-02 2.187700e-02 -4.255000e-03 
2.484500e-02 2.238800e-02 -1.418300e-03 
2.518700e-02 2.187700e-02 -1.418300e-03 
2.484500e-02 2.238800e-02 1.418300e-03 
2.518700e-02 2.187700e-02 1.418300e-03 
2.484500e-02 2.238800e-02 4.255000e-03 
2.518700e-02 2.187700e-02 4.255000e-03 
2.484500e-02 2.238800e-02 7.091600e-03 
2.518700e-02 2.187700e-02 7.091600e-03 
2.484500e-02 2.238800e-02 9.928300e-03 
2.518700e-02 2.187700e-02 9.928300e-03 
2.484500e-02 2.238800e-02 1.276500e-02 
2.518700e-02 2.187700e-02 1.276500e-02 
2.484500e-02 2.238800e-02 1.560200e-02 
2.518700e-02 2.187700e-02 1.560200e-02 
2.484500e-02 2.238800e-02 1.843800e-02 
2.518700e-02 2.187700e-02 1.843800e-02 
2.484500e-02 2.238800e-02 2.127500e-02 
2.518700e-02 2.187700e-02 2.127500e-02 
2.484500e-02 2.238800e-02 2.411200e-02 
2.518700e-02 2.187700e-02 2.411200e-02 
2.484500e-02 2.238800e-02 2.694800e-02 
2.518700e-02 2.187700e-02 2.694800e-02 
2.484500e-02 2.238800e-02 2.978500e-02 
2.518700e-02 2.187700e-02 2.978500e-02 
2.484500e-02 2.238800e-02 3.262200e-02 
2.518700e-02 2.187700e-02 3.262200e-02 
2.484500e-02 2.238800e-02 3.545800e-02 
2.518700e-02 2.187700e-02 3.545800e-02 
2.484500e-02 2.238800e-02 3.829500e-02 
2.518700e-02 2.187700e-02 3.829500e-02 
2.484500e-02 2.238800e-02 4.113200e-02 
2.518700e-02 2.187700e-02 4.113200e-02 
2.484500e-02 2.238800e-02 4.396800e-02 
2.518700e-02 2.187700e-02 4.396800e-02 
2.484500e-02 2.238800e-02 4.680500e-02 
2.518700e-02 2.187700e-02 4.680500e-02 
2.394900e-02 2.238800e-02 4.964100e-02 
2.518700e-02 2.115100e-02 4.964100e-02 
-2.238800e-02 2.394900e-02 -4.964100e-02 
-2.238800e-02 2.484500e-02 -4.680500e-02 
-2.238800e-02 2.484500e-02 -4.396800e-02 
-2.238800e-02 2.484500e-02 -4.113200e-02 
-2.238800e-02 2.484500e-02 -3.829500e-02 
-2.238800e-02 2.484500e-02 -3.545800e-02 
-2.238800e-02 2.484500e-02 -3.262200e-02 
-2.238800e-02 2.484500e-02 -2.978500e-02 
-2.238800e-02 2.484500e-02 -2.694800e-02 
-2.238800e-02 2.484500e-02 -2.411200e-02 
-2.238800e-02 2.484500e-02 -2.127500e-02 
-2.238800e-02 2.484500e-02 -1.843800e-02 
-2.238800e-02 2.484500e-02 -1.560200e-02 
-2.238800e-02 2.484500e-02 -1.276500e-02 
-2.238800e-02 2.484500e-02 -9.928300e-03 
-2.238800e-02 2.484500e-02 -7.091600e-03 
-2.238800e-02 2.484500e-02 -4.255000e-03 
-2.238800e-02 2.484500e-02 -1.418300e-03 
-2.238800e-02 2.484500e-02 1.418300e-03 
-2.238800e-02 2.484500e-02 4.255000e-03 
-2.238800e-02 2.484500e-02 7.091600e-03 
-2.238800e-02 2.484500e-02 9.928300e-03 
-2.238800e-02 2.484500e-02 1.276500e-02 
-2.238800e-02 2.484500e-02 1.560200e-02 
-2.238800e-02 2.484500e-02 1.843800e-02 
-2.238800e-02 2.484500e-02 2.127500e-02 
-2.238800e-02 2.484500e-02 2.411200e-02 
-2.238800e-02 2.484500e-02 2.694800e-02 
-2.238800e-02 2.484500e-02 2.978500e-02 
-2.238800e-02 2.484500e-02 3.262200e-02 
-2.238800e-02 2.484500e-02 3.545800e-02 
-2.238800e-02 2.484500e-02 3.829500e-02 
-2.238800e-02 2.484500e-02 4.113200e-02 
-2.238800e-02 2.484500e-02 4.396800e-02 
-2.238800e-02 2.484500e-02 4.680500e-02 
-2.238800e-02 2.394900e-02 4.964100e-02 
-2.115100e-02 2.518700e-02 -4.964100e-02 
-1.959000e-02 2.518700e-02 -5.000000e-02 
-2.187700e-02 2.518700e-02 -4.680500e-02 
-2.187700e-02 2.518700e-02 -4.396800e-02 
-2.187700e-02 2.518700e-02 -4.113200e-02 
-2.187700e-02 2.518700e-02 -3.829500e-02 
-2.187700e-02 2.518700e-02 -3.545800e-02 
-2.187700e-02 2.518700e-02 -3.262200e-02 
-2.187700e-02 2.518700e-02 -2.978500e-02 
-2.187700e-02 2.518700e-02 -2.694800e-02 
-2.187700e-02 2.518700e-02 -2.411200e-02 
-2.187700e-02 2.518700e-02 -2.127500e-02 
-2.187700e-02 2.518700e-02 -1.843800e-02 
-2.187700e-02 2.518700e-02 -1.560200e-02 
-2.187700e-02 2.518700e-02 -1.276500e-02 
-2.187700e-02 2.518700e-02 -9.928300e-03 
-2.187700e-02 2.518700e-02 -7.091600e-03 
-2.187700e-02 2.518700e-02 -4.255000e-03 
-2.187700e-02 2.518700e-02 -1.418300e-03 
-2.187700e-02 2.518700e-02 1.418300e-03 
-2.187700e-02 2.518700e-02 4.255000e-03 
-2.187700e-02 2.518700e-02 7.091600e-03 
-2.187700e-02 2.518700e-02 9.928300e-03 
-2.187700e-02 2.518700e-02 1.276500e-02 
-2.187700e-02 2.518700e-02 1.560200e-02 
-2.187700e-02 2.518700e-02 1.843800e-02 
-2.187700e-02 2.518700e-02 2.127500e-02 
-2.187700e-02 2.518700e-02 2.411200e-02 
-2.187700e-02 2.518700e-02 2.694800e-02 
-2.187700e-02 2.518700e-02 2.978500e-02 
-2.187700e-02 2.518700e-02 3.262200e-02 
-2.187700e-02 2.518700e-02 3.545800e-02 
-2.187700e-02 2.518700e-02 3.829500e-02 
-2.187700e-02 2.518700e-02 4.113200e-02 
-2.187700e-02 2.518700e-02 4.396800e-02 
-2.187700e-02 2.518700e-02 4.680500e-02 
-2.115100e-02 2.518700e-02 4.964100e-02 
-1.959000e-02 2.518700e-02 5.000000e-02 
-1.679100e-02 2.518700e-02 -5.000000e-02 
-1.679100e-02 2.518700e-02 5.000000e-02 
-1.399300e-02 2.518700e-02 -5.000000e-02 
-1.399300e-02 2.518700e-02 5.000000e-02 
-1.119400e-02 2.518700e-02 -5.000000e-02 
-1.119400e-02 2.518700e-02 5.000000e-02 
-8.395600e-03 2.518700e-02 -5.000000e-02 
-8.395600e-03 2.518700e-02 5.000000e-02 
-5.597000e-03 2.518700e-02 -5.000000e-02 
-5.597000e-03 2.518700e-02 5.000000e-02 
-2.798500e-03 2.518700e-02 -5.000000e-02 
-2.798500e-03 2.518700e-02 5.000000e-02 
0.000000e+00 2.518700e-02 -5.000000e-02 
0.000000e+00 2.518700e-02 5.000000e-02 
2.798500e-03 2.518700e-02 -5.000000e-02 
2.798500e-03 2.518700e-02 5.000000e-02 
5.597000e-03 2.518700e-02 -5.000000e-02 
5.597000e-03 2.518700e-02 5.000000e-02 
8.395600e-03 2.518700e-02 -5.000000e-02 
8.395600e-03 2.518700e-02 5.000000e-02 
1.119400e-02 2.518700e-02 -5.000000e-02 
1.119400e-02 2.518700e-02 5.000000e-02 
1.399300e-02 2.518700e-02 -5.000000e-02 
1.399300e-02 2.518700e-02 5.000000e-02 
1.679100e-02 2.518700e-02 -5.000000e-02 
1.679100e-02 2.518700e-02 5.000000e-02 
1.959000e-02 2.518700e-02 -5.000000e-02 
1.959000e-02 2.518700e-02 5.000000e-02 
2.115100e-02 2.518700e-02 -4.964100e-02 
2.238800e-02 2.394900e-02 -4.964100e-02 
2.187700e-02 2.518700e-02 -4.680500e-02 
2.238800e-02 2.484500e-02 -4.680500e-02 
2.187700e-02 2.518700e-02 -4.396800e-02 
2.238800e-02 2.484500e-02 -4.396800e-02 
2.187700e-02 2.518700e-02 -4.113200e-02 
2.238800e-02 2.484500e-02 -4.113200e-02 
2.187700e-02 2.518700e-02 -3.829500e-02 
2.238800e-02 2.484500e-02 -3.829500e-02 
2.187700e-02 2.518700e-02 -3.545800e-02 
2.238800e-02 2.484500e-02 -3.545800e-02 
2.187700e-02 2.518700e-02 -3.262200e-02 
2.238800e-02 2.484500e-02 -3.262200e-02 
2.187700e-02 2.518700e-02 -2.978500e-02 
2.238800e-02 2.484500e-02 -2.978500e-02 
2.187700e-02 2.518700e-02 -2.694800e-02 
2.238800e-02 2.484500e-02 -2.694800e-02 
2.187700e-02 2.518700e-02 -2.411200e-02 
2.238800e-02 2.484500e-02 -2.411200e-02 
2.187700e-02 2.518700e-02 -2.127500e-02 
2.238800e-02 2.484500e-02 -2.127500e-02 
2.187700e-02 2.518700e-02 -1.843800e-02 
2.238800e-02 2.484500e-02 -1.843800e-02 
2.187700e-02 2.518700e-02 -1.560200e-02 
2.238800e-02 2.484500e-02 -1.560200e-02 
2.187700e-02 2.518700e-02 -1.276500e-02 
2.238800e-02 2.484500e-02 -1.276500e-02 
2.187700e-02 2.518700e-02 -9.928300e-03 
2.238800e-02 2.484500e-02 -9.928300e-03 
2.187700e-02 2.518700e-02 -7.091600e-03 
2.238800e-02 2.484500e-02 -7.091600e-03 
2.187700e-02 2.518700e-02 -4.255000e-03 
2.238800e-02 2.484500e-02 -4.255000e-03 
2.187700e-02 2.518700e-02 -1.418300e-03 
2.238800e-02 2.484500e-02 -1.418300e-03 
2.187700e-02 2.518700e-02 1.418300e-03 
2.238800e-02 2.484500e-02 1.418300e-03 
2.187700e-02 2.518700e-02 4.255000e-03 
2.238800e-02 2.484500e-02 4.255000e-03 
2.187700e-02 2.518700e-02 7.091600e-03 
2.238800e-02 2.484500e-02 7.091600e-03 
2.187700e-02 2.518700e-02 9.928300e-03 
2.238800e-02 2.484500e-02 9.928300e-03 
2.187700e-02 2.518700e-02 1.276500e-02 
2.238800e-02 2.484500e-02 1.276500e-02 
2.187700e-02 2.518700e-02 1.560200e-02 
2.238800e-02 2.484500e-02 1.560200e-02 
2.187700e-02 2.518700e-02 1.843800e-02 
2.238800e-02 2.484500e-02 1.843800e-02 
2.187700e-02 2.518700e-02 2.127500e-02 
2.238800e-02 2.484500e-02 2.127500e-02 
2.187700e-02 2.518700e-02 2.411200e-02 
2.238800e-02 2.484500e-02 2.411200e-02 
2.187700e-02 2.518700e-02 2.694800e-02 
2.238800e-02 2.484500e-02 2.694800e-02 
2.187700e-02 2.518700e-02 2.978500e-02 
2.238800e-02 2.484500e-02 2.978500e-02 
2.187700e-02 2.518700e-02 3.262200e-02 
2.238800e-02 2.484500e-02 3.262200e-02 
2.187700e-02 2.518700e-02 3.545800e-02 
2.238800e-02 2.484500e-02 3.545800e-02 
2.187700e-02 2.518700e-02 3.829500e-02 
2.238800e-02 2.484500e-02 3.829500e-02 
2.187700e-02 2.518700e-02 4.113200e-02 
2.238800e-02 2.484500e-02 4.113200e-02 
2.187700e-02 2.518700e-02 4.396800e-02 
2.238800e-02 2.484500e-02 4.396800e-02 
2.187700e-02 2.518700e-02 4.680500e-02 
2.238800e-02 2.484500e-02 4.680500e-02 
2.115100e-02 2.518700e-02 4.964100e-02 
2.238800e-02 2.394900e-02 4.964100e-02 
-1.959000e-02 2.589700e-02 -4.964100e-02 
-1.959000e-02 2.671700e-02 -4.680500e-02 
-1.959000e-02 2.671700e-02 -4.396800e-02 
-1.959000e-02 2.671700e-02 -4.113200e-02 
-1.959000e-02 2.671700e-02 -3.829500e-02 
-1.959000e-02 2.671700e-02 -3.545800e-02 
-1.959000e-02 2.671700e-02 -3.262200e-02 
-1.959000e-02 2.671700e-02 -2.978500e-02 
-1.959000e-02 2.671700e-02 -2.694800e-02 
-1.959000e-02 2.671700e-02 -2.411200e-02 
-1.959000e-02 2.671700e-02 -2.127500e-02 
-1.959000e-02 2.671700e-02 -1.843800e-02 
-1.959000e-02 2.671700e-02 -1.560200e-02 
-1.959000e-02 2.671700e-02 -1.276500e-02 
-1.959000e-02 2.671700e-02 -9.928300e-03 
-1.959000e-02 2.671700e-02 -7.091600e-03 
-1.959000e-02 2.671700e-02 -4.255000e-03 
-1.959000e-02 2.671700e-02 -1.418300e-03 
-1.959000e-02 2.671700e-02 1.418300e-03 
-1.959000e-02 2.671700e-02 4.255000e-03 
-1.959000e-02 2.671700e-02 7.091600e-03 
-1.959000e-02 2.671700e-02 9.928300e-03 
-1.959000e-02 2.671700e-02 1.276500e-02 
-1.959000e-02 2.671700e-02 1.560200e-02 
-1.959000e-02 2.671700e-02 1.843800e-02 
-1.959000e-02 2.671700e-02 2.127500e-02 
-1.959000e-02 2.671700e-02 2.411200e-02 
-1.959000e-02 2.671700e-02 2.694800e-02 
-1.959000e-02 2.671700e-02 2.978500e-02 
-1.959000e-02 2.671700e-02 3.262200e-02 
-1.959000e-02 2.671700e-02 3.545800e-02 
-1.959000e-02 2.671700e-02 3.829500e-02 
-1.959000e-02 2.671700e-02 4.113200e-02 
-1.959000e-02 2.671700e-02 4.396800e-02 
-1.959000e-02 2.671700e-02 4.680500e-02 
-1.959000e-02 2.589700e-02 4.964100e-02 
-1.750100e-02 2.798500e-02 -4.964100e-02 
-1.679100e-02 2.798500e-02 -5.000000e-02 
-1.769500e-02 2.798500e-02 -4.680500e-02 
-1.769500e-02 2.798500e-02 -4.396800e-02 
-1.769500e-02 2.798500e-02 -4.113200e-02 
-1.769500e-02 2.798500e-02 -3.829500e-02 
-1.769500e-02 2.798500e-02 -3.545800e-02 
-1.769500e-02 2.798500e-02 -3.262200e-02 
-1.769500e-02 2.798500e-02 -2.978500e-02 
-1.769500e-02 2.798500e-02 -2.694800e-02 
-1.769500e-02 2.798500e-02 -2.411200e-02 
-1.769500e-02 2.798500e-02 -2.127500e-02 
-1.769500e-02 2.798500e-02 -1.843800e-02 
-1.769500e-02 2.798500e-02 -1.560200e-02 
-1.769500e-02 2.798500e-02 -1.276500e-02 
-1.769500e-02 2.798500e-02 -9.928300e-03 
-1.769500e-02 2.798500e-02 -7.091600e-03 
-1.769500e-02 2.798500e-02 -4.255000e-03 
-1.769500e-02 2.798500e-02 -1.418300e-03 
-1.769500e-02 2.798500e-02 1.418300e-03 
-1.769500e-02 2.798500e-02 4.255000e-03 
-1.769500e-02 2.798500e-02 7.091600e-03 
-1.769500e-02 2.798500e-02 9.928300e-03 
-1.769500e-02 2.798500e-02 1.276500e-02 
-1.769500e-02 2.798500e-02 1.560200e-02 
-1.769500e-02 2.798500e-02 1.843800e-02 
-1.769500e-02 2.798500e-02 2.127500e-02 
-1.769500e-02 2.798500e-02 2.411200e-02 
-1.769500e-02 2.798500e-02 2.694800e-02 
-1.769500e-02 2.798500e-02 2.978500e-02 
-1.769500e-02 2.798500e-02 3.262200e-02 
-1.769500e-02 2.798500e-02 3.545800e-02 
-1.769500e-02 2.798500e-02 3.829500e-02 
-1.769500e-02 2.798500e-02 4.113200e-02 
-1.769500e-02 2.798500e-02 4.396800e-02 
-1.769500e-02 2.798500e-02 4.680500e-02 
-1.750100e-02 2.798500e-02 4.964100e-02 
-1.679100e-02 2.798500e-02 5.000000e-02 
-1.399300e-02 2.798500e-02 -5.000000e-02 
-1.399300e-02 2.798500e-02 5.000000e-02 
-1.119400e-02 2.798500e-02 -5.000000e-02 
-1.119400e-02 2.798500e-02 5.000000e-02 
-8.395600e-03 2.798500e-02 -5.000000e-02 
-8.395600e-03 2.798500e-02 5.000000e-02 
-5.597000e-03 2.798500e-02 -5.000000e-02 
-5.597000e-03 2.798500e-02 5.000000e-02 
-2.798500e-03 2.798500e-02 -5.000000e-02 
-2.798500e-03 2.798500e-02 5.000000e-02 
0.000000e+00 2.798500e-02 -5.000000e-02 
0.000000e+00 2.798500e-02 5.000000e-02 
2.798500e-03 2.798500e-02 -5.000000e-02 
2.798500e-03 2.798500e-02 5.000000e-02 
5.597000e-03 2.798500e-02 -5.000000e-02 
5.597000e-03 2.798500e-02 5.000000e-02 
8.395600e-03 2.798500e-02 -5.000000e-02 
8.395600e-03 2.798500e-02 5.000000e-02 
1.119400e-02 2.798500e-02 -5.000000e-02 
1.119400e-02 2.798500e-02 5.000000e-02 
1.399300e-02 2.798500e-02 -5.000000e-02 
1.399300e-02 2.798500e-02 5.000000e-02 
1.679100e-02 2.798500e-02 -5.000000e-02 
1.679100e-02 2.798500e-02 5.000000e-02 
1.750100e-02 2.798500e-02 -4.964100e-02 
1.959000e-02 2.589700e-02 -4.964100e-02 
1.769500e-02 2.798500e-02 -4.680500e-02 
1.959000e-02 2.671700e-02 -4.680500e-02 
1.769500e-02 2.798500e-02 -4.396800e-02 
1.959000e-02 2.671700e-02 -4.396800e-02 
1.769500e-02 2.798500e-02 -4.113200e-02 
1.959000e-02 2.671700e-02 -4.113200e-02 
1.769500e-02 2.798500e-02 -3.829500e-02 
1.959000e-02 2.671700e-02 -3.829500e-02 
1.769500e-02 2.798500e-02 -3.545800e-02 
1.959000e-02 2.671700e-02 -3.545800e-02 
1.769500e-02 2.798500e-02 -3.262200e-02 
1.959000e-02 2.671700e-02 -3.262200e-02 
1.769500e-02 2.798500e-02 -2.978500e-02 
1.959000e-02 2.671700e-02 -2.978500e-02 
1.769500e-02 2.798500e-02 -2.694800e-02 
1.959000e-02 2.671700e-02 -2.694800e-02 
1.769500e-02 2.798500e-02 -2.411200e-02 
1.959000e-02 2.671700e-02 -2.411200e-02 
1.769500e-02 2.798500e-02 -2.127500e-02 
1.959000e-02 2.671700e-02 -2.127500e-02 
1.769500e-02 2.798500e-02 -1.843800e-02 
1.959000e-02 2.671700e-02 -1.843800e-02 
1.769500e-02 2.798500e-02 -1.560200e-02 
1.959000e-02 2.671700e-02 -1.560200e-02 
1.769500e-02 2.798500e-02 -1.276500e-02 
1.959000e-02 2.671700e-02 -1.276500e-02 
1.769500e-02 2.798500e-02 -9.928300e-03 
1.959000e-02 2.671700e-02 -9.928300e-03 
1.769500e-02 2.798500e-02 -7.091600e-03 
1.959000e-02 2.671700e-02 -7.091600e-03 
1.769500e-02 2.798500e-02 -4.255000e-03 
1.959000e-02 2.671700e-02 -4.255000e-03 
1.769500e-02 2.798500e-02 -1.418300e-03 
1.959000e-02 2.671700e-02 -1.418300e-03 
1.769500e-02 2.798500e-02 1.418300e-03 
1.959000e-02 2.671700e-02 1.418300e-03 
1.769500e-02 2.798500e-02 4.255000e-03 
1.959000e-02 2.671700e-02 4.255000e-03 
1.769500e-02 2.798500e-02 7.091600e-03 
1.959000e-02 2.671700e-02 7.091600e-03 
1.769500e-02 2.798500e-02 9.928300e-03 
1.959000e-02 2.671700e-02 9.928300e-03 
1.769500e-02 2.798500e-02 1.276500e-02 
1.959000e-02 2.671700e-02 1.276500e-02 
1.769500e-02 2.798500e-02 1.560200e-02 
1.959000e-02 2.671700e-02 1.560200e-02 
1.769500e-02 2.798500e-02 1.843800e-02 
1.959000e-02 2.671700e-02 1.843800e-02 
1.769500e-02 2.798500e-02 2.127500e-02 
1.959000e-02 2.671700e-02 2.127500e-02 
1.769500e-02 2.798500e-02 2.411200e-02 
1.959000e-02 2.671700e-02 2.411200e-02 
1.769500e-02 2.798500e-02 2.694800e-02 
1.959000e-02 2.671700e-02 2.694800e-02 
1.769500e-02 2.798500e-02 2.978500e-02 
1.959000e-02 2.671700e-02 2.978500e-02 
1.769500e-02 2.798500e-02 3.262200e-02 
1.959000e-02 2.671700e-02 3.262200e-02 
1.769500e-02 2.798500e-02 3.545800e-02 
1.959000e-02 2.671700e-02 3.545800e-02 
1.769500e-02 2.798500e-02 3.829500e-02 
1.959000e-02 2.671700e-02 3.829500e-02 
1.769500e-02 2.798500e-02 4.113200e-02 
1.959000e-02 2.671700e-02 4.113200e-02 
1.769500e-02 2.798500e-02 4.396800e-02 
1.959000e-02 2.671700e-02 4.396800e-02 
1.769500e-02 2.798500e-02 4.680500e-02 
1.959000e-02 2.671700e-02 4.680500e-02 
1.750100e-02 2.798500e-02 4.964100e-02 
1.959000e-02 2.589700e-02 4.964100e-02 
-1.679100e-02 2.844500e-02 -4.964100e-02 
-1.679100e-02 2.859000e-02 -4.680500e-02 
-1.679100e-02 2.859000e-02 -4.396800e-02 
-1.679100e-02 2.859000e-02 -4.113200e-02 
-1.679100e-02 2.859000e-02 -3.829500e-02 
-1.679100e-02 2.859000e-02 -3.545800e-02 
-1.679100e-02 2.859000e-02 -3.262200e-02 
-1.679100e-02 2.859000e-02 -2.978500e-02 
-1.679100e-02 2.859000e-02 -2.694800e-02 
-1.679100e-02 2.859000e-02 -2.411200e-02 
-1.679100e-02 2.859000e-02 -2.127500e-02 
-1.679100e-02 2.859000e-02 -1.843800e-02 
-1.679100e-02 2.859000e-02 -1.560200e-02 
-1.679100e-02 2.859000e-02 -1.276500e-02 
-1.679100e-02 2.859000e-02 -9.928300e-03 
-1.679100e-02 2.859000e-02 -7.091600e-03 
-1.679100e-02 2.859000e-02 -4.255000e-03 
-1.679100e-02 2.859000e-02 -1.418300e-03 
-1.679100e-02 2.859000e-02 1.418300e-03 
-1.679100e-02 2.859000e-02 4.255000e-03 
-1.679100e-02 2.859000e-02 7.091600e-03 
-1.679100e-02 2.859000e-02 9.928300e-03 
-1.679100e-02 2.859000e-02 1.276500e-02 
-1.679100e-02 2.859000e-02 1.560200e-02 
-1.679100e-02 2.859000e-02 1.843800e-02 
-1.679100e-02 2.859000e-02 2.127500e-02 
-1.679100e-02 2.859000e-02 2.411200e-02 
-1.679100e-02 2.859000e-02 2.694800e-02 
-1.679100e-02 2.859000e-02 2.978500e-02 
-1.679100e-02 2.859000e-02 3.262200e-02 
-1.679100e-02 2.859000e-02 3.545800e-02 
-1.679100e-02 2.859000e-02 3.829500e-02 
-1.679100e-02 2.859000e-02 4.113200e-02 
-1.679100e-02 2.859000e-02 4.396800e-02 
-1.679100e-02 2.859000e-02 4.680500e-02 
-1.679100e-02 2.844500e-02 4.964100e-02 
-1.399300e-02 2.958900e-02 -4.964100e-02 
-1.399300e-02 3.046200e-02 -4.680500e-02 
-1.399300e-02 3.046200e-02 -4.396800e-02 
-1.399300e-02 3.046200e-02 -4.113200e-02 
-1.399300e-02 3.046200e-02 -3.829500e-02 
-1.399300e-02 3.046200e-02 -3.545800e-02 
-1.399300e-02 3.046200e-02 -3.262200e-02 
-1.399300e-02 3.046200e-02 -2.978500e-02 
-1.399300e-02 3.046200e-02 -2.694800e-02 
-1.399300e-02 3.046200e-02 -2.411200e-02 
-1.399300e-02 3.046200e-02 -2.127500e-02 
-1.399300e-02 3.046200e-02 -1.843800e-02 
-1.399300e-02 3.046200e-02 -1.560200e-02 
-1.399300e-02 3.046200e-02 -1.276500e-02 
-1.399300e-02 3.046200e-02 -9.928300e-03 
-1.399300e-02 3.046200e-02 -7.091600e-03 
-1.399300e-02 3.046200e-02 -4.255000e-03 
-1.399300e-02 3.046200e-02 -1.418300e-03 
-1.399300e-02 3.046200e-02 1.418300e-03 
-1.399300e-02 3.046200e-02 4.255000e-03 
-1.399300e-02 3.046200e-02 7.091600e-03 
-1.399300e-02 3.046200e-02 9.928300e-03 
-1.399300e-02 3.046200e-02 1.276500e-02 
-1.399300e-02 3.046200e-02 1.560200e-02 
-1.399300e-02 3.046200e-02 1.843800e-02 
-1.399300e-02 3.046200e-02 2.127500e-02 
-1.399300e-02 3.046200e-02 2.411200e-02 
-1.399300e-02 3.046200e-02 2.694800e-02 
-1.399300e-02 3.046200e-02 2.978500e-02 
-1.399300e-02 3.046200e-02 3.262200e-02 
-1.399300e-02 3.046200e-02 3.545800e-02 
-1.399300e-02 3.046200e-02 3.829500e-02 
-1.399300e-02 3.046200e-02 4.113200e-02 
-1.399300e-02 3.046200e-02 4.396800e-02 
-1.399300e-02 3.046200e-02 4.680500e-02 
-1.399300e-02 2.958900e-02 4.964100e-02 
-1.279800e-02 3.078400e-02 -4.964100e-02 
-1.119400e-02 3.078400e-02 -5.000000e-02 
-1.324000e-02 3.078400e-02 -4.680500e-02 
-1.324000e-02 3.078400e-02 -4.396800e-02 
-1.324000e-02 3.078400e-02 -4.113200e-02 
-1.324000e-02 3.078400e-02 -3.829500e-02 
-1.324000e-02 3.078400e-02 -3.545800e-02 
-1.324000e-02 3.078400e-02 -3.262200e-02 
-1.324000e-02 3.078400e-02 -2.978500e-02 
-1.324000e-02 3.078400e-02 -2.694800e-02 
-1.324000e-02 3.078400e-02 -2.411200e-02 
-1.324000e-02 3.078400e-02 -2.127500e-02 
-1.324000e-02 3.078400e-02 -1.843800e-02 
-1.324000e-02 3.078400e-02 -1.560200e-02 
-1.324000e-02 3.078400e-02 -1.276500e-02 
-1.324000e-02 3.078400e-02 -9.928300e-03 
-1.324000e-02 3.078400e-02 -7.091600e-03 
-1.324000e-02 3.078400e-02 -4.255000e-03 
-1.324000e-02 3.078400e-02 -1.418300e-03 
-1.324000e-02 3.078400e-02 1.418300e-03 
-1.324000e-02 3.078400e-02 4.255000e-03 
-1.324000e-02 3.078400e-02 7.091600e-03 
-1.324000e-02 3.078400e-02 9.928300e-03 
-1.324000e-02 3.078400e-02 1.276500e-02 
-1.324000e-02 3.078400e-02 1.560200e-02 
-1.324000e-02 3.078400e-02 1.843800e-02 
-1.324000e-02 3.078400e-02 2.127500e-02 
-1.324000e-02 3.078400e-02 2.411200e-02 
-1.324000e-02 3.078400e-02 2.694800e-02 
-1.324000e-02 3.078400e-02 2.978500e-02 
-1.324000e-02 3.078400e-02 3.262200e-02 
-1.324000e-02 3.078400e-02 3.545800e-02 
-1.324000e-02 3.078400e-02 3.829500e-02 
-1.324000e-02 3.078400e-02 4.113200e-02 
-1.324000e-02 3.078400e-02 4.396800e-02 
-1.324000e-02 3.078400e-02 4.680500e-02 
-1.279800e-02 3.078400e-02 4.964100e-02 
-1.119400e-02 3.078400e-02 5.000000e-02 
-8.395600e-03 3.078400e-02 -5.000000e-02 
-8.395600e-03 3.078400e-02 5.000000e-02 
-5.597000e-03 3.078400e-02 -5.000000e-02 
-5.597000e-03 3.078400e-02 5.000000e-02 
-2.798500e-03 3.078400e-02 -5.000000e-02 
-2.798500e-03 3.078400e-02 5.000000e-02 
0.000000e+00 3.078400e-02 -5.000000e-02 
0.000000e+00 3.078400e-02 5.000000e-02 
2.798500e-03 3.078400e-02 -5.000000e-02 
2.798500e-03 3.078400e-02 5.000000e-02 
5.597000e-03 3.078400e-02 -5.000000e-02 
5.597000e-03 3.078400e-02 5.000000e-02 
8.395600e-03 3.078400e-02 -5.000000e-02 
8.395600e-03 3.078400e-02 5.000000e-02 
1.119400e-02 3.078400e-02 -5.000000e-02 
1.119400e-02 3.078400e-02 5.000000e-02 
1.279800e-02 3.078400e-02 -4.964100e-02 
1.399300e-02 2.958900e-02 -4.964100e-02 
1.324000e-02 3.078400e-02 -4.680500e-02 
1.399300e-02 3.046200e-02 -4.680500e-02 
1.324000e-02 3.078400e-02 -4.396800e-02 
1.399300e-02 3.046200e-02 -4.396800e-02 
1.324000e-02 3.078400e-02 -4.113200e-02 
1.399300e-02 3.046200e-02 -4.113200e-02 
1.324000e-02 3.078400e-02 -3.829500e-02 
1.399300e-02 3.046200e-02 -3.829500e-02 
1.324000e-02 3.078400e-02 -3.545800e-02 
1.399300e-02 3.046200e-02 -3.545800e-02 
1.324000e-02 3.078400e-02 -3.262200e-02 
1.399300e-02 3.046200e-02 -3.262200e-02 
1.324000e-02 3.078400e-02 -2.978500e-02 
1.399300e-02 3.046200e-02 -2.978500e-02 
1.324000e-02 3.078400e-02 -2.694800e-02 
1.399300e-02 3.046200e-02 -2.694800e-02 
1.324000e-02 3.078400e-02 -2.411200e-02 
1.399300e-02 3.046200e-02 -2.411200e-02 
1.324000e-02 3.078400e-02 -2.127500e-02 
1.399300e-02 3.046200e-02 -2.127500e-02 
1.324000e-02 3.078400e-02 -1.843800e-02 
1.399300e-02 3.046200e-02 -1.843800e-02 
1.324000e-02 3.078400e-02 -1.560200e-02 
1.399300e-02 3.046200e-02 -1.560200e-02 
1.324000e-02 3.078400e-02 -1.276500e-02 
1.399300e-02 3.046200e-02 -1.276500e-02 
1.324000e-02 3.078400e-02 -9.928300e-03 
1.399300e-02 3.046200e-02 -9.928300e-03 
1.324000e-02 3.078400e-02 -7.091600e-03 
1.399300e-02 3.046200e-02 -7.091600e-03 
1.324000e-02 3.078400e-02 -4.255000e-03 
1.399300e-02 3.046200e-02 -4.255000e-03 
1.324000e-02 3.078400e-02 -1.418300e-03 
1.399300e-02 3.046200e-02 -1.418300e-03 
1.324000e-02 3.078400e-02 1.418300e-03 
1.399300e-02 3.046200e-02 1.418300e-03 
1.324000e-02 3.078400e-02 4.255000e-03 
1.399300e-02 3.046200e-02 4.255000e-03 
1.324000e-02 3.078400e-02 7.091600e-03 
1.399300e-02 3.046200e-02 7.091600e-03 
1.324000e-02 3.078400e-02 9.928300e-03 
1.399300e-02 3.046200e-02 9.928300e-03 
1.324000e-02 3.078400e-02 1.276500e-02 
1.399300e-02 3.046200e-02 1.276500e-02 
1.324000e-02 3.078400e-02 1.560200e-02 
1.399300e-02 3.046200e-02 1.560200e-02 
1.324000e-02 3.078400e-02 1.843800e-02 
1.399300e-02 3.046200e-02 1.843800e-02 
1.324000e-02 3.078400e-02 2.127500e-02 
1.399300e-02 3.046200e-02 2.127500e-02 
1.324000e-02 3.078400e-02 2.411200e-02 
1.399300e-02 3.046200e-02 2.411200e-02 
1.324000e-02 3.078400e-02 2.694800e-02 
1.399300e-02 3.046200e-02 2.694800e-02 
1.324000e-02 3.078400e-02 2.978500e-02 
1.399300e-02 3.046200e-02 2.978500e-02 
1.324000e-02 3.078400e-02 3.262200e-02 
1.399300e-02 3.046200e-02 3.262200e-02 
1.324000e-02 3.078400e-02 3.545800e-02 
1.399300e-02 3.046200e-02 3.545800e-02 
1.324000e-02 3.078400e-02 3.829500e-02 
1.399300e-02 3.046200e-02 3.829500e-02 
1.324000e-02 3.078400e-02 4.113200e-02 
1.399300e-02 3.046200e-02 4.113200e-02 
1.324000e-02 3.078400e-02 4.396800e-02 
1.399300e-02 3.046200e-02 4.396800e-02 
1.324000e-02 3.078400e-02 4.680500e-02 
1.399300e-02 3.046200e-02 4.680500e-02 
1.279800e-02 3.078400e-02 4.964100e-02 
1.399300e-02 2.958900e-02 4.964100e-02 
1.679100e-02 2.844500e-02 -4.964100e-02 
1.679100e-02 2.859000e-02 -4.680500e-02 
1.679100e-02 2.859000e-02 -4.396800e-02 
1.679100e-02 2.859000e-02 -4.113200e-02 
1.679100e-02 2.859000e-02 -3.829500e-02 
1.679100e-02 2.859000e-02 -3.545800e-02 
1.679100e-02 2.859000e-02 -3.262200e-02 
1.679100e-02 2.859000e-02 -2.978500e-02 
1.679100e-02 2.859000e-02 -2.694800e-02 
1.679100e-02 2.859000e-02 -2.411200e-02 
1.679100e-02 2.859000e-02 -2.127500e-02 
1.679100e-02 2.859000e-02 -1.843800e-02 
1.679100e-02 2.859000e-02 -1.560200e-02 
1.679100e-02 2.859000e-02 -1.276500e-02 
1.679100e-02 2.859000e-02 -9.928300e-03 
1.679100e-02 2.859000e-02 -7.091600e-03 
1.679100e-02 2.859000e-02 -4.255000e-03 
1.679100e-02 2.859000e-02 -1.418300e-03 
1.679100e-02 2.859000e-02 1.418300e-03 
1.679100e-02 2.859000e-02 4.255000e-03 
1.679100e-02 2.859000e-02 7.091600e-03 
1.679100e-02 2.859000e-02 9.928300e-03 
1.679100e-02 2.859000e-02 1.276500e-02 
1.679100e-02 2.859000e-02 1.560200e-02 
1.679100e-02 2.859000e-02 1.843800e-02 
1.679100e-02 2.859000e-02 2.127500e-02 
1.679100e-02 2.859000e-02 2.411200e-02 
1.679100e-02 2.859000e-02 2.694800e-02 
1.679100e-02 2.859000e-02 2.978500e-02 
1.679100e-02 2.859000e-02 3.262200e-02 
1.679100e-02 2.859000e-02 3.545800e-02 
1.679100e-02 2.859000e-02 3.829500e-02 
1.679100e-02 2.859000e-02 4.113200e-02 
1.679100e-02 2.859000e-02 4.396800e-02 
1.679100e-02 2.859000e-02 4.680500e-02 
1.679100e-02 2.844500e-02 4.964100e-02 
-1.119400e-02 3.120600e-02 -4.964100e-02 
-1.119400e-02 3.152300e-02 -4.680500e-02 
-1.119400e-02 3.152300e-02 -4.396800e-02 
-1.119400e-02 3.152300e-02 -4.113200e-02 
-1.119400e-02 3.152300e-02 -3.829500e-02 
-1.119400e-02 3.152300e-02 -3.545800e-02 
-1.119400e-02 3.152300e-02 -3.262200e-02 
-1.119400e-02 3.152300e-02 -2.978500e-02 
-1.119400e-02 3.152300e-02 -2.694800e-02 
-1.119400e-02 3.152300e-02 -2.411200e-02 
-1.119400e-02 3.152300e-02 -2.127500e-02 
-1.119400e-02 3.152300e-02 -1.843800e-02 
-1.119400e-02 3.152300e-02 -1.560200e-02 
-1.119400e-02 3.152300e-02 -1.276500e-02 
-1.119400e-02 3.152300e-02 -9.928300e-03 
-1.119400e-02 3.152300e-02 -7.091600e-03 
-1.119400e-02 3.152300e-02 -4.255000e-03 
-1.119400e-02 3.152300e-02 -1.418300e-03 
-1.119400e-02 3.152300e-02 1.418300e-03 
-1.119400e-02 3.152300e-02 4.255000e-03 
-1.119400e-02 3.152300e-02 7.091600e-03 
-1.119400e-02 3.152300e-02 9.928300e-03 
-1.119400e-02 3.152300e-02 1.276500e-02 
-1.119400e-02 3.152300e-02 1.560200e-02 
-1.119400e-02 3.152300e-02 1.843800e-02 
-1.119400e-02 3.152300e-02 2.127500e-02 
-1.119400e-02 3.152300e-02 2.411200e-02 
-1.119400e-02 3.152300e-02 2.694800e-02 
-1.119400e-02 3.152300e-02 2.978500e-02 
-1.119400e-02 3.152300e-02 3.262200e-02 
-1.119400e-02 3.152300e-02 3.545800e-02 
-1.119400e-02 3.152300e-02 3.829500e-02 
-1.119400e-02 3.152300e-02 4.113200e-02 
-1.119400e-02 3.152300e-02 4.396800e-02 
-1.119400e-02 3.152300e-02 4.680500e-02 
-1.119400e-02 3.120600e-02 4.964100e-02 
-8.395600e-03 3.133100e-02 -4.964100e-02 
-8.395600e-03 3.208000e-02 -4.680500e-02 
-8.395600e-03 3.208000e-02 -4.396800e-02 
-8.395600e-03 3.208000e-02 -4.113200e-02 
-8.395600e-03 3.208000e-02 -3.829500e-02 
-8.395600e-03 3.208000e-02 -3.545800e-02 
-8.395600e-03 3.208000e-02 -3.262200e-02 
-8.395600e-03 3.208000e-02 -2.978500e-02 
-8.395600e-03 3.208000e-02 -2.694800e-02 
-8.395600e-03 3.208000e-02 -2.411200e-02 
-8.395600e-03 3.208000e-02 -2.127500e-02 
-8.395600e-03 3.208000e-02 -1.843800e-02 
-8.395600e-03 3.208000e-02 -1.560200e-02 
-8.395600e-03 3.208000e-02 -1.276500e-02 
-8.395600e-03 3.208000e-02 -9.928300e-03 
-8.395600e-03 3.208000e-02 -7.091600e-03 
-8.395600e-03 3.208000e-02 -4.255000e-03 
-8.395600e-03 3.208000e-02 -1.418300e-03 
-8.395600e-03 3.208000e-02 1.418300e-03 
-8.395600e-03 3.208000e-02 4.255000e-03 
-8.395600e-03 3.208000e-02 7.091600e-03 
-8.395600e-03 3.208000e-02 9.928300e-03 
-8.395600e-03 3.208000e-02 1.276500e-02 
-8.395600e-03 3.208000e-02 1.560200e-02 
-8.395600e-03 3.208000e-02 1.843800e-02 
-8.395600e-03 3.208000e-02 2.127500e-02 
-8.395600e-03 3.208000e-02 2.411200e-02 
-8.395600e-03 3.208000e-02 2.694800e-02 
-8.395600e-03 3.208000e-02 2.978500e-02 
-8.395600e-03 3.208000e-02 3.262200e-02 
-8.395600e-03 3.208000e-02 3.545800e-02 
-8.395600e-03 3.208000e-02 3.829500e-02 
-8.395600e-03 3.208000e-02 4.113200e-02 
-8.395600e-03 3.208000e-02 4.396800e-02 
-8.395600e-03 3.208000e-02 4.680500e-02 
-8.395600e-03 3.133100e-02 4.964100e-02 
-5.597000e-03 3.156400e-02 -4.964100e-02 
-5.597000e-03 3.263700e-02 -4.680500e-02 
-5.597000e-03 3.263700e-02 -4.396800e-02 
-5.597000e-03 3.263700e-02 -4.113200e-02 
-5.597000e-03 3.263700e-02 -3.829500e-02 
-5.597000e-03 3.263700e-02 -3.545800e-02 
-5.597000e-03 3.263700e-02 -3.262200e-02 
-5.597000e-03 3.263700e-02 -2.978500e-02 
-5.597000e-03 3.263700e-02 -2.694800e-02 
-5.597000e-03 3.263700e-02 -2.411200e-02 
-5.597000e-03 3.263700e-02 -2.127500e-02 
-5.597000e-03 3.263700e-02 -1.843800e-02 
-5.597000e-03 3.263700e-02 -1.560200e-02 
-5.597000e-03 3.263700e-02 -1.276500e-02 
-5.597000e-03 3.263700e-02 -9.928300e-03 
-5.597000e-03 3.263700e-02 -7.091600e-03 
-5.597000e-03 3.263700e-02 -4.255000e-03 
-5.597000e-03 3.263700e-02 -1.418300e-03 
-5.597000e-03 3.263700e-02 1.418300e-03 
-5.597000e-03 3.263700e-02 4.255000e-03 
-5.597000e-03 3.263700e-02 7.091600e-03 
-5.597000e-03 3.263700e-02 9.928300e-03 
-5.597000e-03 3.263700e-02 1.276500e-02 
-5.597000e-03 3.263700e-02 1.560200e-02 
-5.597000e-03 3.263700e-02 1.843800e-02 
-5.597000e-03 3.263700e-02 2.127500e-02 
-5.597000e-03 3.263700e-02 2.411200e-02 
-5.597000e-03 3.263700e-02 2.694800e-02 
-5.597000e-03 3.263700e-02 2.978500e-02 
-5.597000e-03 3.263700e-02 3.262200e-02 
-5.597000e-03 3.263700e-02 3.545800e-02 
-5.597000e-03 3.263700e-02 3.829500e-02 
-5.597000e-03 3.263700e-02 4.113200e-02 
-5.597000e-03 3.263700e-02 4.396800e-02 
-5.597000e-03 3.263700e-02 4.680500e-02 
-5.597000e-03 3.156400e-02 4.964100e-02 
-2.798500e-03 3.214000e-02 -4.964100e-02 
-2.798500e-03 3.319300e-02 -4.680500e-02 
-2.798500e-03 3.319300e-02 -4.396800e-02 
-2.798500e-03 3.319300e-02 -4.113200e-02 
-2.798500e-03 3.319300e-02 -3.829500e-02 
-2.798500e-03 3.319300e-02 -3.545800e-02 
-2.798500e-03 3.319300e-02 -3.262200e-02 
-2.798500e-03 3.319300e-02 -2.978500e-02 
-2.798500e-03 3.319300e-02 -2.694800e-02 
-2.798500e-03 3.319300e-02 -2.411200e-02 
-2.798500e-03 3.319300e-02 -2.127500e-02 
-2.798500e-03 3.319300e-02 -1.843800e-02 
-2.798500e-03 3.319300e-02 -1.560200e-02 
-2.798500e-03 3.319300e-02 -1.276500e-02 
-2.798500e-03 3.319300e-02 -9.928300e-03 
-2.798500e-03 3.319300e-02 -7.091600e-03 
-2.798500e-03 3.319300e-02 -4.255000e-03 
-2.798500e-03 3.319300e-02 -1.418300e-03 
-2.798500e-03 3.319300e-02 1.418300e-03 
-2.798500e-03 3.319300e-02 4.255000e-03 
-2.798500e-03 3.319300e-02 7.091600e-03 
-2.798500e-03 3.319300e-02 9.928300e-03 
-2.798500e-03 3.319300e-02 1.276500e-02 
-2.798500e-03 3.319300e-02 1.560200e-02 
-2.798500e-03 3.319300e-02 1.843800e-02 
-2.798500e-03 3.319300e-02 2.127500e-02 
-2.798500e-03 3.319300e-02 2.411200e-02 
-2.798500e-03 3.319300e-02 2.694800e-02 
-2.798500e-03 3.319300e-02 2.978500e-02 
-2.798500e-03 3.319300e-02 3.262200e-02 
-2.798500e-03 3.319300e-02 3.545800e-02 
-2.798500e-03 3.319300e-02 3.829500e-02 
-2.798500e-03 3.319300e-02 4.113200e-02 
-2.798500e-03 3.319300e-02 4.396800e-02 
-2.798500e-03 3.319300e-02 4.680500e-02 
-2.798500e-03 3.214000e-02 4.964100e-02 
-8.435300e-04 3.358200e-02 -4.964100e-02 
0.000000e+00 3.358200e-02 -4.981800e-02 
-8.435300e-04 3.358200e-02 -4.680500e-02 
-8.435300e-04 3.358200e-02 -4.396800e-02 
-8.435300e-04 3.358200e-02 -4.113200e-02 
-8.435300e-04 3.358200e-02 -3.829500e-02 
-8.435300e-04 3.358200e-02 -3.545800e-02 
-8.435300e-04 3.358200e-02 -3.262200e-02 
-8.435300e-04 3.358200e-02 -2.978500e-02 
-8.435300e-04 3.358200e-02 -2.694800e-02 
-8.435300e-04 3.358200e-02 -2.411200e-02 
-8.435300e-04 3.358200e-02 -2.127500e-02 
-8.435300e-04 3.358200e-02 -1.843800e-02 
-8.435300e-04 3.358200e-02 -1.560200e-02 
-8.435300e-04 3.358200e-02 -1.276500e-02 
-8.435300e-04 3.358200e-02 -9.928300e-03 
-8.435300e-04 3.358200e-02 -7.091600e-03 
-8.435300e-04 3.358200e-02 -4.255000e-03 
-8.435300e-04 3.358200e-02 -1.418300e-03 
-8.435300e-04 3.358200e-02 1.418300e-03 
-8.435300e-04 3.358200e-02 4.255000e-03 
-8.435300e-04 3.358200e-02 7.091600e-03 
-8.435300e-04 3.358200e-02 9.928300e-03 
-8.435300e-04 3.358200e-02 1.276500e-02 
-8.435300e-04 3.358200e-02 1.560200e-02 
-8.435300e-04 3.358200e-02 1.843800e-02 
-8.435300e-04 3.358200e-02 2.127500e-02 
-8.435300e-04 3.358200e-02 2.411200e-02 
-8.435300e-04 3.358200e-02 2.694800e-02 
-8.435300e-04 3.358200e-02 2.978500e-02 
-8.435300e-04 3.358200e-02 3.262200e-02 
-8.435300e-04 3.358200e-02 3.545800e-02 
-8.435300e-04 3.358200e-02 3.829500e-02 
-8.435300e-04 3.358200e-02 4.113200e-02 
-8.435300e-04 3.358200e-02 4.396800e-02 
-8.435300e-04 3.358200e-02 4.680500e-02 
-8.435300e-04 3.358200e-02 4.964100e-02 
0.000000e+00 3.358200e-02 4.981800e-02 
8.435300e-04 3.358200e-02 -4.964100e-02 
2.798500e-03 3.214000e-02 -4.964100e-02 
8.435300e-04 3.358200e-02 -4.680500e-02 
2.798500e-03 3.319300e-02 -4.680500e-02 
8.435300e-04 3.358200e-02 -4.396800e-02 
2.798500e-03 3.319300e-02 -4.396800e-02 
8.435300e-04 3.358200e-02 -4.113200e-02 
2.798500e-03 3.319300e-02 -4.113200e-02 
8.435300e-04 3.358200e-02 -3.829500e-02 
2.798500e-03 3.319300e-02 -3.829500e-02 
8.435300e-04 3.358200e-02 -3.545800e-02 
2.798500e-03 3.319300e-02 -3.545800e-02 
8.435300e-04 3.358200e-02 -3.262200e-02 
2.798500e-03 3.319300e-02 -3.262200e-02 
8.435300e-04 3.358200e-02 -2.978500e-02 
2.798500e-03 3.319300e-02 -2.978500e-02 
8.435300e-04 3.358200e-02 -2.694800e-02 
2.798500e-03 3.319300e-02 -2.694800e-02 
8.435300e-04 3.358200e-02 -2.411200e-02 
2.798500e-03 3.319300e-02 -2.411200e-02 
8.435300e-04 3.358200e-02 -2.127500e-02 
2.798500e-03 3.319300e-02 -2.127500e-02 
8.435300e-04 3.358200e-02 -1.843800e-02 
2.798500e-03 3.319300e-02 -1.843800e-02 
