# .PCD v.6 - Point Cloud Data file format
FIELDS x y z 
SIZE 4 4 4 
TYPE F F F 
COUNT 1 1 1 
WIDTH 1166
HEIGHT 1
POINTS 1166
DATA ascii
-2.460962e-02 1.573846e-02 9.173860e-02 
-2.905385e-02 -2.532145e-02 8.534260e-02 
-2.034080e-02 2.497088e-02 8.935890e-02 
-3.179927e-02 5.473384e-03 9.347710e-02 
-3.052616e-02 -2.011244e-02 8.638600e-02 
-1.734145e-02 2.808084e-02 8.647970e-02 
-3.032890e-02 9.170227e-03 9.192180e-02 
-3.198985e-02 -1.493356e-02 8.742330e-02 
-1.300635e-02 3.178635e-02 8.270600e-02 
-2.806717e-02 1.364112e-02 8.993970e-02 
-3.314710e-02 -8.795210e-03 8.846300e-02 
-5.534168e-03 3.425742e-02 7.620250e-02 
-2.628831e-02 1.835160e-02 8.838200e-02 
-3.332529e-02 -3.162331e-03 8.863360e-02 
-3.034784e-03 3.543353e-02 7.320480e-02 
-2.539878e-02 2.010555e-02 8.679510e-02 
-3.390824e-02 -7.384804e-04 8.834720e-02 
-3.222261e-03 3.544034e-02 7.199600e-02 
-2.559811e-02 2.010112e-02 8.562300e-02 
-3.411313e-02 -7.578700e-04 8.717970e-02 
-1.009568e-03 3.560890e-02 6.896100e-02 
-2.500451e-02 2.086922e-02 8.402040e-02 
-3.402056e-02 2.113287e-04 8.601860e-02 
-2.528428e-02 -2.942839e-02 7.206060e-02 
-2.421205e-02 2.042618e-02 8.196540e-02 
-3.422594e-02 1.926390e-04 8.484770e-02 
-2.447720e-02 -2.999123e-02 6.993980e-02 
-2.361428e-02 2.119754e-02 8.035170e-02 
-3.413335e-02 1.163926e-03 8.368330e-02 
-2.740083e-02 -2.746069e-02 7.147400e-02 
-2.301474e-02 2.197112e-02 7.873340e-02 
-3.404068e-02 2.136624e-03 8.251720e-02 
-2.830486e-02 -2.597455e-02 7.118560e-02 
-2.291326e-02 2.296596e-02 7.755530e-02 
-3.345919e-02 2.878757e-03 8.091020e-02 
-2.870718e-02 -2.474673e-02 7.044320e-02 
-2.231142e-02 2.374382e-02 7.592930e-02 
-3.336592e-02 3.854846e-03 7.973960e-02 
-3.010900e-02 -2.300875e-02 7.061000e-02 
-2.060236e-02 2.630855e-02 7.386660e-02 
-3.218331e-02 6.589747e-03 7.814150e-02 
-3.139796e-02 -1.901258e-02 7.124580e-02 
-1.736662e-02 2.823566e-02 7.043760e-02 
-3.148954e-02 9.560713e-03 7.698300e-02 
-3.366967e-02 -1.453918e-02 7.277970e-02 
-1.491805e-02 2.938619e-02 6.742770e-02 
-3.060175e-02 1.131338e-02 7.536910e-02 
-3.376742e-02 -1.231872e-02 7.205100e-02 
-1.296596e-02 3.076171e-02 6.485630e-02 
-3.020562e-02 1.329702e-02 7.419770e-02 
-3.386527e-02 -1.009823e-02 7.132230e-02 
-1.316076e-02 3.076508e-02 6.364130e-02 
-3.040986e-02 1.328760e-02 7.300800e-02 
-3.357928e-02 -1.036885e-02 6.967300e-02 
-1.284078e-02 3.055160e-02 6.196110e-02 
-3.061450e-02 1.327823e-02 7.181660e-02 
-3.279685e-02 -1.088535e-02 6.756390e-02 
-1.303585e-02 3.055480e-02 6.074130e-02 
-3.032457e-02 1.304241e-02 7.017280e-02 
-3.201108e-02 -1.140410e-02 6.544560e-02 
-1.323133e-02 3.055805e-02 5.951960e-02 
-3.052961e-02 1.303284e-02 6.897670e-02 
-3.221875e-02 -1.143171e-02 6.423730e-02 
-1.291041e-02 3.034361e-02 5.782830e-02 
-3.073488e-02 1.302322e-02 6.777880e-02 
-3.242684e-02 -1.145933e-02 6.302720e-02 
-1.310626e-02 3.034671e-02 5.660180e-02 
-3.044428e-02 1.278634e-02 6.612430e-02 
-3.213657e-02 -1.173396e-02 6.135350e-02 
-1.330215e-02 3.034972e-02 5.537340e-02 
-3.015285e-02 1.254878e-02 6.446500e-02 
-3.234499e-02 -1.176190e-02 6.013860e-02 
-1.349853e-02 3.035282e-02 5.414320e-02 
-3.035858e-02 1.253876e-02 6.325940e-02 
-3.255384e-02 -1.178982e-02 5.892190e-02 
-1.369514e-02 3.035590e-02 5.291120e-02 
-3.006632e-02 1.230028e-02 6.159220e-02 
-3.276282e-02 -1.181784e-02 5.770330e-02 
-1.358426e-02 3.138065e-02 5.168580e-02 
-2.946971e-02 1.306934e-02 5.992840e-02 
-3.316658e-02 -1.058548e-02 5.695820e-02 
-1.378132e-02 3.138452e-02 5.045020e-02 
-2.967583e-02 1.305973e-02 5.871520e-02 
-3.337622e-02 -1.061264e-02 5.573730e-02 
-1.397850e-02 3.138835e-02 4.921270e-02 
-2.938148e-02 1.282114e-02 5.703520e-02 
-3.358617e-02 -1.063982e-02 5.451460e-02 
-1.469467e-02 3.161035e-02 4.845120e-02 
-2.958780e-02 1.281125e-02 5.581710e-02 
-3.379646e-02 -1.066703e-02 5.329020e-02 
-1.520115e-02 3.059041e-02 4.720280e-02 
-3.060015e-02 1.201951e-02 5.505620e-02 
-3.331168e-02 -1.220744e-02 5.111140e-02 
-1.622620e-02 2.978860e-02 4.643220e-02 
-3.161230e-02 1.122770e-02 5.429530e-02 
-3.131266e-02 -1.450887e-02 4.749330e-02 
-1.559869e-02 3.059695e-02 4.471730e-02 
-3.101535e-02 1.199857e-02 5.261350e-02 
-3.222460e-02 -1.301466e-02 4.721920e-02 
-1.173876e-02 3.237066e-02 4.058830e-02 
-2.930282e-02 1.457138e-02 5.047170e-02 
-3.252063e-02 -9.482344e-03 4.696260e-02 
-6.995246e-03 3.498117e-02 3.593120e-02 
-2.727646e-02 1.817278e-02 4.832900e-02 
-3.351399e-02 -4.447990e-03 4.766750e-02 
-2.330035e-02 2.440347e-02 4.524570e-02 
-3.308460e-02 3.373759e-03 4.792030e-02 
-3.330497e-02 -2.232059e-02 4.150050e-02 
-1.805351e-02 2.899505e-02 4.067880e-02 
-3.095395e-02 9.226497e-03 4.626260e-02 
-9.268182e-03 3.336237e-02 3.310300e-02 
-2.851000e-02 1.611605e-02 4.460840e-02 
-3.426018e-02 -6.802495e-03 4.346300e-02 
5.636777e-04 3.865395e-02 2.486630e-02 
-2.473226e-02 2.360015e-02 4.199540e-02 
-3.352134e-02 2.065355e-03 4.373110e-02 
-1.896840e-02 2.797197e-02 3.691350e-02 
-3.138515e-02 7.933599e-03 4.206230e-02 
-3.209899e-02 -1.757539e-02 3.604710e-02 
-1.343840e-02 3.136680e-02 3.175390e-02 
-3.005679e-02 1.302847e-02 4.086290e-02 
-3.380605e-02 -1.094454e-02 3.776720e-02 
-6.763917e-03 3.436769e-02 2.551510e-02 
-2.821869e-02 1.790289e-02 3.917760e-02 
-3.449409e-02 -4.852928e-03 3.850540e-02 
-2.466594e-03 3.724607e-02 2.121320e-02 
-2.668377e-02 2.176714e-02 3.747870e-02 
-3.448122e-02 -2.929593e-04 3.826290e-02 
1.481393e-04 3.848239e-02 1.788020e-02 
-2.555965e-02 2.233854e-02 3.526040e-02 
-3.438569e-02 7.112697e-04 3.702400e-02 
2.464131e-03 3.866957e-02 1.451290e-02 
-2.412059e-02 2.394189e-02 3.304060e-02 
-3.448569e-02 2.981400e-03 3.627900e-02 
4.245206e-03 3.907879e-02 1.164400e-02 
-2.298565e-02 2.452077e-02 3.080220e-02 
-3.439007e-02 3.988814e-03 3.503750e-02 
-2.585847e-02 -2.640245e-02 1.986240e-02 
-2.236359e-02 2.532729e-02 2.905090e-02 
-3.479869e-02 5.235863e-03 3.428350e-02 
-2.731890e-02 -2.459453e-02 2.011280e-02 
-2.256933e-02 2.532661e-02 2.778430e-02 
-3.501211e-02 5.220220e-03 3.303110e-02 
-2.360447e-02 2.451698e-02 2.700620e-02 
-3.503022e-02 3.938976e-03 3.127650e-02 
-2.753824e-02 -2.598746e-02 1.700910e-02 
-2.495084e-02 2.267330e-02 2.621950e-02 
-3.383827e-02 8.989814e-04 2.802210e-02 
-4.888321e-03 3.647834e-02 1.131870e-02 
-2.743418e-02 1.899143e-02 2.591520e-02 
-1.205098e-02 3.343876e-02 1.515580e-02 
-2.991379e-02 1.531510e-02 2.561130e-02 
-1.869411e-02 2.790751e-02 1.790440e-02 
-3.230305e-02 8.074394e-03 2.428280e-02 
-3.148799e-02 -1.852344e-02 1.650010e-02 
-2.526700e-02 2.243474e-02 2.062400e-02 
-1.350506e-02 3.262714e-02 1.177010e-02 
-3.034794e-02 1.402202e-02 2.128870e-02 
-2.297823e-02 2.359794e-02 1.604320e-02 
-3.297090e-02 2.127154e-03 1.890660e-02 
-1.613960e-02 3.120600e-02 1.070820e-02 
-3.037056e-02 1.145710e-02 1.770430e-02 
-3.212293e-02 -1.395104e-02 1.239390e-02 
-2.912884e-02 1.432982e-02 1.593850e-02 
-2.862122e-02 1.280772e-02 1.362010e-02 
-3.061864e-02 7.566319e-03 1.099490e-02 
4.102911e-02 -2.957981e-02 9.040080e-02 
4.031844e-02 -2.789452e-02 9.008740e-02 
3.865353e-02 -2.949443e-02 8.929180e-02 
4.603415e-02 -7.498221e-04 9.282850e-02 
3.944729e-02 -2.621820e-02 8.853960e-02 
4.116578e-02 -1.833909e-02 8.873710e-02 
2.629179e-02 -3.684540e-02 9.217900e-02 
4.382839e-02 -7.225716e-03 8.941560e-02 
3.510914e-02 -3.003330e-02 8.739800e-02 
4.433431e-02 7.750565e-03 9.281770e-02 
4.084518e-02 -1.833998e-02 8.626570e-02 
2.544446e-02 -3.651161e-02 9.018130e-02 
4.433521e-02 1.277728e-03 8.929140e-02 
3.822387e-02 -2.322023e-02 8.498370e-02 
2.031844e-02 -3.954793e-02 9.117510e-02 
4.528573e-02 -1.994924e-03 8.621770e-02 
3.655759e-02 -2.482130e-02 8.418740e-02 
1.817108e-02 -4.076767e-02 9.083860e-02 
4.460582e-02 -1.645160e-03 8.544120e-02 
3.639353e-02 -2.482667e-02 8.294630e-02 
1.749688e-02 -4.042083e-02 9.006850e-02 
4.386316e-02 1.321115e-03 8.559970e-02 
3.721485e-02 -2.287710e-02 8.172090e-02 
1.879329e-02 -3.886957e-02 8.841000e-02 
4.147882e-02 9.158312e-03 8.851460e-02 
3.951727e-02 -1.799000e-02 8.051960e-02 
2.509293e-02 -3.694668e-02 8.356710e-02 
4.269132e-02 1.594283e-02 8.870160e-02 
4.179329e-02 -1.176920e-02 7.979130e-02 
2.991363e-02 -3.256378e-02 8.052960e-02 
7.174912e-03 -4.512520e-02 9.128650e-02 
4.397442e-02 -1.595972e-03 8.048470e-02 
3.573459e-02 -2.484818e-02 7.796320e-02 
1.479976e-02 -3.903338e-02 8.698840e-02 
3.988525e-02 1.374337e-02 8.713690e-02 
4.103688e-02 -1.539975e-02 7.633060e-02 
2.707113e-02 -3.479173e-02 7.894460e-02 
1.486488e-03 -4.512164e-02 9.241290e-02 
4.267148e-02 -3.526133e-03 7.797760e-02 
3.441417e-02 -2.682141e-02 7.544260e-02 
1.247813e-02 -4.026955e-02 8.543110e-02 
3.802477e-02 1.475873e-02 8.605230e-02 
4.176467e-02 -1.609998e-02 7.287510e-02 
2.724003e-02 -3.518259e-02 7.598220e-02 
1.520422e-04 -4.443516e-02 9.088880e-02 
4.226103e-02 4.463348e-04 7.691120e-02 
3.765681e-02 -2.532321e-02 7.106020e-02 
1.506910e-02 -3.849326e-02 8.162690e-02 
3.300312e-02 2.404738e-02 8.996950e-02 
4.234372e-02 -1.012343e-02 7.182280e-02 
3.195248e-02 -3.212399e-02 7.115500e-02 
5.578451e-03 -4.222735e-02 8.535360e-02 
4.077950e-02 6.386059e-03 7.725470e-02 
3.984452e-02 -2.174378e-02 6.808740e-02 
2.119621e-02 -3.791980e-02 7.500380e-02 
3.012155e-02 2.818854e-02 9.069470e-02 
4.248773e-02 -7.795401e-03 6.979490e-02 
3.260815e-02 -3.017453e-02 6.864750e-02 
6.667867e-03 -4.070182e-02 8.246960e-02 
4.100857e-02 4.780814e-03 7.381950e-02 
3.849145e-02 -2.238016e-02 6.602070e-02 
1.984437e-02 -3.856125e-02 7.296610e-02 
3.498136e-02 1.748039e-02 8.098970e-02 
4.129056e-02 -1.510337e-02 6.529330e-02 
2.824831e-02 -3.538021e-02 6.702150e-02 
3.018958e-02 2.418478e-02 8.524990e-02 
4.159676e-02 -1.277040e-02 6.452190e-02 
2.907112e-02 -3.342085e-02 6.577240e-02 
2.749958e-02 2.703636e-02 8.674550e-02 
4.143435e-02 -1.276650e-02 6.324940e-02 
2.889942e-02 -3.343285e-02 6.450390e-02 
4.298817e-02 3.169185e-03 6.642550e-02 
3.730385e-02 -2.203455e-02 6.140980e-02 
1.862762e-02 -3.825673e-02 6.842400e-02 
4.210839e-02 -1.077664e-02 6.071610e-02 
2.955251e-02 -3.147945e-02 6.197830e-02 
4.272889e-02 5.514930e-04 6.291390e-02 
3.544444e-02 -2.366494e-02 5.932280e-02 
1.476059e-02 -3.840802e-02 6.826840e-02 
4.034042e-02 -1.644026e-02 5.713290e-02 
2.516185e-02 -3.534351e-02 6.084150e-02 
4.259133e-02 -7.431153e-03 5.739180e-02 
3.105765e-02 -2.890288e-02 5.768670e-02 
4.274326e-02 1.582784e-03 5.910430e-02 
3.649730e-02 -2.340794e-02 5.449840e-02 
1.673017e-02 -3.894901e-02 6.258790e-02 
3.937316e-02 -1.878900e-02 5.275820e-02 
2.260798e-02 -3.662373e-02 5.797130e-02 
4.119055e-02 -1.344438e-02 5.200690e-02 
2.595970e-02 -3.242459e-02 5.575860e-02 
4.137861e-02 -5.706249e-03 5.324600e-02 
3.244820e-02 -2.904158e-02 5.106870e-02 
8.254539e-03 3.458417e-02 8.938430e-02 
3.839986e-02 -2.115240e-02 4.835630e-02 
1.851627e-02 -3.679478e-02 5.656370e-02 
4.016417e-02 -1.307853e-02 4.862160e-02 
2.699377e-02 -3.356653e-02 5.041890e-02 
4.091747e-02 -7.024364e-03 4.886810e-02 
3.143074e-02 -3.006748e-02 4.717210e-02 
-3.049115e-04 3.237437e-02 9.059570e-02 
3.433476e-02 -2.680896e-02 4.490090e-02 
4.690132e-03 3.529224e-02 8.682650e-02 
3.621324e-02 -2.417334e-02 4.311700e-02 
-2.825904e-02 -2.511920e-02 8.803380e-02 
3.806971e-02 -2.016124e-02 4.184460e-02 
1.862578e-02 -3.624770e-02 4.967420e-02 
-1.152581e-02 2.953280e-02 9.350000e-02 
2.869803e-02 -3.274186e-02 4.243970e-02 
-3.842374e-03 3.307990e-02 8.805200e-02 
3.629189e-02 -2.730711e-02 3.763240e-02 
-3.147851e-02 -1.929329e-02 8.845220e-02 
-1.789269e-02 2.371664e-02 9.325010e-02 
-3.185307e-02 -5.163848e-03 9.256590e-02 
-9.790497e-03 3.059285e-02 8.870780e-02 
-3.205738e-02 -5.154721e-03 9.139980e-02 
-4.865546e-03 3.348892e-02 8.494550e-02 
-2.376847e-02 1.884469e-02 9.300930e-02 
-3.285512e-02 -1.232465e-02 8.801460e-02 
-1.062836e-02 3.096143e-02 8.679160e-02 
-2.805308e-02 1.549853e-02 9.351800e-02 
-3.254277e-02 -8.885233e-03 8.773530e-02 
-8.493451e-03 3.318880e-02 8.476150e-02 
-2.598021e-02 1.766705e-02 9.152570e-02 
-3.311237e-02 -4.804415e-03 8.832500e-02 
-3.551962e-03 3.487431e-02 8.051530e-02 
-2.387938e-02 2.106939e-02 8.996440e-02 
-3.365347e-02 4.989767e-04 8.935230e-02 
1.446683e-03 3.533962e-02 7.576000e-02 
-2.223729e-02 2.355958e-02 8.839020e-02 
-3.290358e-02 3.593812e-03 8.864180e-02 
3.639615e-03 3.760949e-02 7.367580e-02 
-2.014143e-02 2.575651e-02 8.637670e-02 
-3.259297e-02 7.002003e-03 8.836370e-02 
-3.271204e-02 -2.091323e-02 7.807530e-02 
-1.758409e-02 2.766295e-02 8.391690e-02 
-3.140390e-02 9.783546e-03 8.722080e-02 
-3.328747e-02 -1.676149e-02 7.869260e-02 
-1.869878e-02 2.706946e-02 8.316920e-02 
-3.207251e-02 8.881468e-03 8.604330e-02 
-3.262990e-02 -1.870536e-02 7.614980e-02 
-1.845747e-02 2.557082e-02 8.110100e-02 
-3.274211e-02 7.978097e-03 8.486420e-02 
-3.107041e-02 -2.134124e-02 7.268720e-02 
-2.049430e-02 2.435072e-02 8.078480e-02 
-3.343860e-02 5.835334e-03 8.323800e-02 
1.290619e-03 3.622051e-02 6.806230e-02 
-2.115989e-02 2.345268e-02 7.959410e-02 
-3.411068e-02 4.927857e-03 8.205430e-02 
1.520752e-04 3.561429e-02 6.729860e-02 
-2.227696e-02 2.285787e-02 7.884480e-02 
-3.390331e-02 3.384439e-03 7.998830e-02 
-1.460707e-03 3.530907e-02 6.699490e-02 
-2.294426e-02 2.195807e-02 7.765190e-02 
-3.457762e-02 2.472502e-03 7.879880e-02 
-2.598403e-03 3.470333e-02 6.623180e-02 
-2.406223e-02 2.136289e-02 7.690210e-02 
-3.525299e-02 1.559321e-03 7.760770e-02 
-4.207912e-03 3.439897e-02 6.592900e-02 
-2.473134e-02 2.046135e-02 7.570690e-02 
-3.460541e-02 -3.186372e-04 7.507830e-02 
-5.344779e-03 3.379366e-02 6.516640e-02 
-2.585005e-02 1.986569e-02 7.495640e-02 
-3.484073e-02 -1.560230e-03 7.343210e-02 
-4.586148e-03 3.447605e-02 6.349700e-02 
-2.513339e-02 2.051698e-02 7.332790e-02 
-3.457916e-02 -6.157715e-04 7.224750e-02 
-2.402686e-03 3.425392e-02 6.042600e-02 
-2.531455e-02 2.178301e-02 7.259310e-02 
-3.476061e-02 6.521424e-04 7.151160e-02 
-1.635723e-03 3.494054e-02 5.874080e-02 
-2.504622e-02 2.274376e-02 7.140870e-02 
-3.449875e-02 1.598897e-03 7.032470e-02 
-3.255498e-03 3.463420e-02 5.844180e-02 
-2.616731e-02 2.214677e-02 7.065670e-02 
-3.473466e-02 3.565023e-04 6.866680e-02 
-6.296746e-03 3.398461e-02 5.907000e-02 
-2.686146e-02 2.000289e-02 6.899330e-02 
-3.366118e-02 -3.128590e-03 6.517060e-02 
-8.855688e-03 3.303519e-02 5.922960e-02 
-2.800649e-02 1.816243e-02 6.777880e-02 
-3.347615e-02 -5.983905e-03 6.256670e-02 
-1.375523e-02 3.110873e-02 6.076460e-02 
-2.964801e-02 1.413724e-02 6.609090e-02 
-3.379297e-02 -1.107924e-02 5.946600e-02 
-1.395094e-02 3.114476e-02 5.954740e-02 
-2.940498e-02 1.384718e-02 6.443150e-02 
-3.355354e-02 -1.140954e-02 5.777960e-02 
-1.320558e-02 3.182275e-02 5.787090e-02 
-2.868834e-02 1.449444e-02 6.277560e-02 
-3.418766e-02 -9.788665e-03 5.749970e-02 
-1.152378e-02 3.189531e-02 5.525140e-02 
-2.796949e-02 1.514352e-02 6.111490e-02 
-3.392175e-02 -8.836296e-03 5.628590e-02 
-1.030202e-02 3.227307e-02 5.308900e-02 
-2.770071e-02 1.610785e-02 5.991170e-02 
-3.455567e-02 -7.217287e-03 5.600720e-02 
-1.049670e-02 3.231027e-02 5.185710e-02 
-2.790597e-02 1.613274e-02 5.869840e-02 
-3.476720e-02 -7.209465e-03 5.478380e-02 
-1.069161e-02 3.234748e-02 5.062340e-02 
-2.811146e-02 1.615762e-02 5.748330e-02 
-3.497899e-02 -7.201690e-03 5.355870e-02 
-9.935317e-03 3.303282e-02 4.891990e-02 
-2.784218e-02 1.712482e-02 5.627490e-02 
-3.516328e-02 -5.914098e-03 5.281130e-02 
-8.695256e-03 3.467507e-02 4.721980e-02 
-2.664319e-02 1.872433e-02 5.460560e-02 
-3.486994e-02 -3.679418e-03 5.207240e-02 
-4.106050e-03 3.545440e-02 4.262530e-02 
-2.450752e-02 2.096241e-02 5.246980e-02 
-3.499852e-02 1.566732e-04 5.228430e-02 
2.975912e-03 3.725832e-02 3.651450e-02 
-2.094605e-02 2.479687e-02 4.986820e-02 
-3.372518e-02 5.547969e-03 5.204240e-02 
1.974329e-02 3.707427e-02 2.218580e-02 
-1.547139e-02 2.994365e-02 4.631260e-02 
-3.150127e-02 1.281989e-02 5.181780e-02 
-3.160468e-02 -1.572742e-02 4.062950e-02 
-7.088472e-03 3.456910e-02 4.030840e-02 
-2.561953e-02 1.883916e-02 4.829510e-02 
-3.343200e-02 -4.012639e-03 4.524630e-02 
1.921335e-03 3.769034e-02 3.320300e-02 
-2.155320e-02 2.489165e-02 4.616810e-02 
-3.300467e-02 4.628121e-03 4.693540e-02 
1.818100e-02 3.782811e-02 1.930130e-02 
-1.558754e-02 3.100527e-02 4.259660e-02 
-2.983879e-02 1.256300e-02 4.624570e-02 
-3.313402e-02 -1.373091e-02 3.833830e-02 
-5.268433e-03 3.442250e-02 3.457890e-02 
-2.529912e-02 1.955733e-02 4.412100e-02 
-3.449597e-02 -2.363490e-03 4.249260e-02 
3.807312e-03 3.755895e-02 2.737910e-02 
-2.168257e-02 2.593957e-02 4.246000e-02 
-3.270584e-02 5.304512e-03 4.275410e-02 
1.459135e-02 3.853004e-02 1.796100e-02 
-1.713712e-02 3.046553e-02 3.933260e-02 
-3.049075e-02 1.135895e-02 4.204530e-02 
-9.231542e-03 3.287579e-02 3.273640e-02 
-2.736013e-02 1.678036e-02 4.037160e-02 
-3.385412e-02 -7.209362e-03 3.580500e-02 
-1.181779e-03 3.532999e-02 2.601990e-02 
-2.468118e-02 2.253103e-02 3.917760e-02 
-3.435880e-02 8.813035e-04 3.801970e-02 
3.543128e-03 3.870617e-02 2.224260e-02 
-2.155292e-02 2.671535e-02 3.700040e-02 
-3.307260e-02 6.328264e-03 3.778600e-02 
1.133163e-02 3.896264e-02 1.479840e-02 
-1.748893e-02 2.903138e-02 3.333200e-02 
-3.181381e-02 1.049095e-02 3.705810e-02 
-3.331183e-02 -1.737490e-02 2.699260e-02 
-1.387489e-02 3.040348e-02 2.962170e-02 
-3.103664e-02 1.369886e-02 3.632160e-02 
-1.118465e-02 3.240891e-02 2.688070e-02 
-2.980202e-02 1.658908e-02 3.509720e-02 
-3.357948e-02 -9.493483e-03 2.750130e-02 
-8.004715e-03 3.283452e-02 2.310430e-02 
-2.858890e-02 1.821046e-02 3.337270e-02 
-3.281961e-02 -7.552938e-03 2.624700e-02 
-7.711403e-03 3.384595e-02 2.183030e-02 
-2.831557e-02 1.919509e-02 3.212630e-02 
-3.300773e-02 -6.238172e-03 2.548380e-02 
-7.425244e-03 3.357419e-02 2.003670e-02 
-2.806477e-02 1.890569e-02 3.037630e-02 
-3.276151e-02 -6.568911e-03 2.370650e-02 
-8.597593e-03 3.295002e-02 1.925040e-02 
-2.875841e-02 1.797327e-02 2.910780e-02 
-3.207801e-02 -8.554051e-03 2.090260e-02 
-1.219296e-02 3.131566e-02 1.997470e-02 
-2.996198e-02 1.479743e-02 2.732360e-02 
-3.237294e-02 -1.250029e-02 1.806410e-02 
-1.720960e-02 2.934480e-02 2.169870e-02 
-3.211394e-02 1.097372e-02 2.602420e-02 
-3.316270e-02 -1.744799e-02 1.519970e-02 
-2.125112e-02 2.676208e-02 2.240450e-02 
-3.289273e-02 6.160018e-03 2.322030e-02 
-4.979528e-03 3.675310e-02 1.206000e-02 
-2.578201e-02 2.194593e-02 2.258800e-02 
-3.280702e-02 -1.962330e-03 1.835370e-02 
-1.251651e-02 3.115185e-02 1.430850e-02 
-3.034877e-02 1.457328e-02 2.174910e-02 
-3.370535e-02 -1.213709e-02 1.341040e-02 
-2.188894e-02 2.557914e-02 1.805590e-02 
-1.242705e-02 3.220401e-02 1.172670e-02 
-2.936070e-02 1.494307e-02 1.819460e-02 
-2.764257e-02 1.755216e-02 1.643100e-02 
-2.836669e-02 1.531514e-02 1.461870e-02 
-1.937128e-02 2.607425e-02 1.035340e-02 
-3.113081e-02 5.269550e-03 1.119550e-02 
3.648658e-02 -3.276528e-02 9.257040e-02 
4.311874e-02 -2.574689e-02 9.050530e-02 
3.682297e-02 -3.184695e-02 9.011350e-02 
4.594789e-02 -1.522249e-02 9.085060e-02 
3.249609e-02 -3.531463e-02 8.974840e-02 
4.298938e-02 -1.998743e-02 8.911850e-02 
2.773153e-02 -3.833159e-02 8.983980e-02 
4.342602e-02 -1.604355e-02 8.928030e-02 
3.041693e-02 -3.658134e-02 8.771790e-02 
4.678201e-02 -3.049612e-03 9.177780e-02 
3.699657e-02 -2.649264e-02 8.703530e-02 
1.780585e-02 -4.081485e-02 9.184960e-02 
4.436033e-02 -1.120195e-02 8.821880e-02 
3.225935e-02 -3.259593e-02 8.573640e-02 
1.052214e-02 -4.419520e-02 9.326850e-02 
4.185659e-02 -1.638589e-02 8.602520e-02 
2.793267e-02 -3.606570e-02 8.537440e-02 
4.039483e-02 -1.810181e-02 8.477000e-02 
2.557192e-02 -3.690711e-02 8.503890e-02 
4.154725e-02 -1.631755e-02 8.354780e-02 
2.715668e-02 -3.558256e-02 8.335630e-02 
4.640273e-03 -4.625027e-02 9.181810e-02 
4.309613e-02 -1.192462e-02 8.326570e-02 
2.960914e-02 -3.205761e-02 8.214950e-02 
7.464835e-03 -4.322774e-02 9.018440e-02 
4.346946e-02 -4.982231e-03 8.483310e-02 
3.317057e-02 -2.808957e-02 8.048470e-02 
1.180114e-02 -4.021602e-02 8.764740e-02 
4.351870e-02 6.557072e-03 8.868450e-02 
3.825771e-02 -2.103736e-02 7.930790e-02 
2.205400e-02 -3.856922e-02 8.097620e-02 
-4.536389e-03 -4.474531e-02 9.394550e-02 
4.283189e-02 -1.050879e-02 8.001150e-02 
3.022022e-02 -3.155494e-02 7.795450e-02 
6.725755e-03 -4.143239e-02 8.743340e-02 
4.166581e-02 6.608575e-03 8.713690e-02 
3.773929e-02 -2.229178e-02 7.633060e-02 
2.061834e-02 -3.896402e-02 7.894460e-02 
-6.781286e-03 -4.425306e-02 9.285770e-02 
4.272111e-02 -9.128346e-03 7.799500e-02 
3.145012e-02 -3.151643e-02 7.451780e-02 
7.013924e-03 -4.053606e-02 8.499280e-02 
3.920507e-02 1.585402e-02 9.015310e-02 
4.025672e-02 -1.738991e-02 7.433710e-02 
2.533177e-02 -3.632536e-02 7.461580e-02 
-2.300087e-03 -4.169935e-02 8.869180e-02 
3.991051e-02 5.027902e-03 8.344250e-02 
3.731199e-02 -2.528644e-02 7.112180e-02 
1.835250e-02 -4.022033e-02 7.565260e-02 
-1.066480e-02 -4.372372e-02 9.144740e-02 
4.219650e-02 -5.980456e-03 7.567240e-02 
3.318520e-02 -3.056953e-02 6.980550e-02 
9.054564e-03 -4.008456e-02 7.994060e-02 
3.491304e-02 2.370936e-02 9.234950e-02 
4.176403e-02 -1.463960e-02 7.058900e-02 
2.815049e-02 -3.496260e-02 6.944300e-02 
3.284594e-04 -4.039256e-02 8.370280e-02 
3.869204e-02 1.022370e-02 8.252870e-02 
3.835934e-02 -2.210433e-02 6.783140e-02 
2.157418e-02 -3.933005e-02 7.002510e-02 
-1.036355e-02 -4.153175e-02 8.828900e-02 
4.218952e-02 -6.277354e-03 7.144550e-02 
3.269500e-02 -3.049846e-02 6.600300e-02 
8.946942e-03 -4.048273e-02 7.575890e-02 
3.189260e-02 2.048187e-02 8.870450e-02 
3.936599e-02 -2.026962e-02 6.531100e-02 
2.299678e-02 -3.797910e-02 6.703910e-02 
-1.155764e-02 -4.062465e-02 8.676610e-02 
4.292335e-02 -1.315654e-02 6.506580e-02 
2.835520e-02 -3.265917e-02 6.487190e-02 
1.727460e-03 -3.948200e-02 7.788830e-02 
4.362948e-02 -1.091392e-02 6.429490e-02 
2.951349e-02 -3.086278e-02 6.361820e-02 
5.389248e-03 -4.039460e-02 7.387970e-02 
4.347420e-02 -1.087511e-02 6.302320e-02 
2.934707e-02 -3.083926e-02 6.234510e-02 
5.207367e-03 -4.037878e-02 7.263560e-02 
4.225427e-02 -1.436806e-02 6.075150e-02 
2.673826e-02 -3.303246e-02 6.152890e-02 
2.563479e-02 2.992487e-02 9.027630e-02 
4.015999e-02 -2.010014e-02 5.796170e-02 
2.235576e-02 -3.655010e-02 6.118040e-02 
1.934434e-02 2.560047e-02 9.078770e-02 
3.487382e-02 -2.587147e-02 5.710630e-02 
1.533212e-02 -4.047445e-02 6.226650e-02 
4.358000e-02 -1.291117e-02 5.643710e-02 
2.801384e-02 -3.163565e-02 5.722360e-02 
2.544596e-03 -3.984797e-02 6.904970e-02 
3.680471e-02 -2.491991e-02 5.356300e-02 
1.674360e-02 -3.912305e-02 5.925570e-02 
4.085930e-02 -1.818254e-02 5.282940e-02 
2.344532e-02 -3.514504e-02 5.559510e-02 
4.311028e-02 -1.279842e-02 5.257390e-02 
2.841754e-02 -3.246789e-02 5.237840e-02 
1.990852e-03 -3.979911e-02 6.529480e-02 
3.631755e-02 -2.483480e-02 4.968110e-02 
1.488893e-02 -3.771413e-02 5.689030e-02 
4.145801e-02 -1.451377e-02 4.997080e-02 
2.674234e-02 -3.421384e-02 4.977490e-02 
1.000738e-02 3.205746e-02 9.036450e-02 
3.397865e-02 -2.747268e-02 4.705620e-02 
1.122785e-02 -3.898181e-02 5.577580e-02 
3.825518e-02 -1.936765e-02 4.683110e-02 
2.124850e-02 -3.683170e-02 4.913540e-02 
4.138833e-02 -1.173553e-02 4.709870e-02 
2.781474e-02 -3.416172e-02 4.488300e-02 
7.842559e-03 3.376402e-02 8.856660e-02 
3.213793e-02 -2.919405e-02 4.312590e-02 
-3.094057e-02 -1.815562e-02 8.805040e-02 
3.440988e-02 -2.376766e-02 4.287640e-02 
1.227271e-02 -3.758833e-02 5.017810e-02 
-1.747531e-03 3.254272e-02 9.137730e-02 
2.370190e-02 -3.678593e-02 4.194210e-02 
2.990537e-03 3.370620e-02 8.762300e-02 
3.306704e-02 -3.366233e-02 3.609840e-02 
1.069021e-02 3.506294e-02 8.207130e-02 
-3.289490e-02 -1.679235e-02 8.463050e-02 
-1.144231e-02 2.863439e-02 9.167950e-02 
-3.302216e-02 -9.315511e-03 8.700220e-02 
-5.929626e-03 3.181033e-02 8.839480e-02 
-2.459539e-02 1.849644e-02 9.381520e-02 
-3.381903e-02 -1.465637e-02 8.358990e-02 
-1.057356e-02 3.042192e-02 8.935890e-02 
-2.763068e-02 1.563831e-02 9.304990e-02 
-3.366969e-02 -1.048049e-02 8.419330e-02 
-5.671113e-03 3.277773e-02 8.605110e-02 
-2.436600e-02 1.943567e-02 9.150110e-02 
-3.341416e-02 -3.455861e-03 8.612400e-02 
-1.754153e-03 3.469107e-02 8.314720e-02 
-2.170897e-02 2.241799e-02 8.993970e-02 
-3.377962e-02 2.679664e-03 8.802980e-02 
1.972542e-03 3.540594e-02 7.976890e-02 
-1.966204e-02 2.458161e-02 8.836550e-02 
-3.325550e-02 6.383844e-03 8.818460e-02 
7.603196e-03 3.584393e-02 7.501710e-02 
-1.660130e-02 2.720481e-02 8.636030e-02 
-3.173866e-02 1.051735e-02 8.791480e-02 
1.120792e-02 3.817265e-02 7.248490e-02 
-1.313439e-02 2.946481e-02 8.390860e-02 
-2.984536e-02 1.426159e-02 8.721250e-02 
-3.517759e-02 -1.279046e-02 7.734500e-02 
-1.128864e-02 3.044558e-02 8.186690e-02 
-2.880721e-02 1.597019e-02 8.605970e-02 
-3.527063e-02 -9.851032e-03 7.750920e-02 
-1.085162e-02 3.134584e-02 8.069280e-02 
-2.838603e-02 1.685360e-02 8.489710e-02 
-3.484824e-02 -8.974276e-03 7.632420e-02 
-1.064080e-02 3.103796e-02 7.906550e-02 
-2.820199e-02 1.652703e-02 8.328750e-02 
-3.428913e-02 -9.750732e-03 7.422970e-02 
-1.122318e-02 3.148037e-02 7.832280e-02 
-2.839911e-02 1.658319e-02 8.211200e-02 
-3.372752e-02 -1.053060e-02 7.212620e-02 
-1.203354e-02 3.071219e-02 7.712690e-02 
-2.883527e-02 1.542476e-02 8.048670e-02 
-3.302477e-02 -1.298282e-02 6.909270e-02 
-1.222039e-02 3.077904e-02 7.593760e-02 
-2.865130e-02 1.509499e-02 7.886500e-02 
-3.245710e-02 -1.377443e-02 6.696530e-02 
-1.240752e-02 3.084601e-02 7.474660e-02 
-2.884949e-02 1.515035e-02 7.768220e-02 
-3.149864e-02 -1.498553e-02 6.436620e-02 
-1.196943e-02 3.175050e-02 7.356210e-02 
-2.842548e-02 1.603883e-02 7.650570e-02 
-3.223255e-02 -1.285513e-02 6.454320e-02 
-1.113300e-02 3.228060e-02 7.192560e-02 
-2.800088e-02 1.692865e-02 7.532770e-02 
-3.257762e-02 -1.114327e-02 6.425840e-02 
-1.131987e-02 3.234883e-02 7.072810e-02 
-2.819896e-02 1.698537e-02 7.413970e-02 
-3.161876e-02 -1.234752e-02 6.164930e-02 
-1.150702e-02 3.241718e-02 6.952890e-02 
-2.839734e-02 1.704221e-02 7.295000e-02 
-3.143443e-02 -1.272649e-02 5.996000e-02 
-1.129569e-02 3.210866e-02 6.787330e-02 
-2.821177e-02 1.671310e-02 7.130900e-02 
-3.163947e-02 -1.269049e-02 5.873400e-02 
-1.108370e-02 3.179922e-02 6.621290e-02 
-2.841052e-02 1.676981e-02 7.011460e-02 
-3.184474e-02 -1.265448e-02 5.750640e-02 
-1.087106e-02 3.148883e-02 6.454760e-02 
-2.860966e-02 1.682668e-02 6.891840e-02 
-3.244011e-02 -1.220220e-02 5.674720e-02 
-1.248897e-02 3.147111e-02 6.424790e-02 
-2.905036e-02 1.565770e-02 6.725840e-02 
-3.289494e-02 -1.343701e-02 5.503700e-02 
-1.330790e-02 3.069552e-02 6.303020e-02 
-2.949228e-02 1.448526e-02 6.559360e-02 
-3.374064e-02 -1.425694e-02 5.379530e-02 
-1.452631e-02 3.029888e-02 6.227160e-02 
-2.954971e-02 1.291803e-02 6.346570e-02 
1.125307e-02 3.808365e-02 4.757000e-02 
-1.471686e-02 3.036613e-02 6.106000e-02 
-2.936438e-02 1.258025e-02 6.179760e-02 
1.107765e-02 3.815820e-02 4.632010e-02 
-1.450906e-02 3.005294e-02 5.938340e-02 
-2.956564e-02 1.263443e-02 6.058650e-02 
8.981264e-03 3.851707e-02 4.650970e-02 
-1.573018e-02 2.965541e-02 5.862310e-02 
-3.039770e-02 1.184444e-02 5.936540e-02 
6.469425e-03 3.925560e-02 4.717970e-02 
-1.655395e-02 2.887624e-02 5.739780e-02 
-3.123107e-02 1.105336e-02 5.814230e-02 
6.712773e-03 3.894992e-02 4.545090e-02 
-1.674653e-02 2.894263e-02 5.617910e-02 
-3.182022e-02 1.150091e-02 5.739100e-02 
6.956810e-03 3.864336e-02 4.371700e-02 
-1.693941e-02 2.900913e-02 5.495850e-02 
-3.202373e-02 1.155443e-02 5.617400e-02 
8.696816e-03 3.843415e-02 4.101150e-02 
-1.610030e-02 2.954133e-02 5.327520e-02 
-3.159559e-02 1.245407e-02 5.496370e-02 
1.346558e-02 3.842121e-02 3.633420e-02 
-1.445700e-02 2.930865e-02 5.064210e-02 
-3.155356e-02 1.374827e-02 5.421960e-02 
1.807608e-02 3.714357e-02 3.108950e-02 
-1.401294e-02 3.022742e-02 4.941960e-02 
-3.112479e-02 1.465021e-02 5.300700e-02 
-1.212393e-02 3.123392e-02 4.725110e-02 
-2.967380e-02 1.600871e-02 5.133040e-02 
-8.948373e-03 3.395584e-02 4.508990e-02 
-2.695002e-02 1.906965e-02 4.966580e-02 
-3.473469e-02 -6.158748e-03 4.182300e-02 
-1.994967e-03 3.611506e-02 4.002890e-02 
-2.176028e-02 2.267515e-02 4.658600e-02 
-3.382818e-02 1.900717e-03 4.400580e-02 
6.976253e-03 3.801717e-02 3.342270e-02 
-1.709774e-02 2.832260e-02 4.493110e-02 
-3.151511e-02 9.943205e-03 4.522290e-02 
-1.015689e-02 3.331149e-02 4.135130e-02 
-2.701284e-02 1.721861e-02 4.453210e-02 
-3.483333e-02 -8.145670e-03 3.659230e-02 
-6.535886e-04 3.604483e-02 3.479550e-02 
-2.171665e-02 2.371643e-02 4.288150e-02 
-3.459030e-02 3.710928e-03 4.124920e-02 
8.370800e-03 3.795492e-02 2.811160e-02 
-1.704364e-02 2.937807e-02 4.121750e-02 
-3.149321e-02 1.095688e-02 4.151280e-02 
2.199690e-02 3.597775e-02 1.614260e-02 
-1.032026e-02 3.313874e-02 3.711670e-02 
-2.722569e-02 1.699901e-02 4.032900e-02 
-3.507223e-02 -8.444375e-03 3.231460e-02 
-1.856892e-03 3.539783e-02 3.099130e-02 
-2.295181e-02 2.305013e-02 3.914360e-02 
-3.429705e-02 1.366983e-03 3.554610e-02 
6.319693e-03 3.808242e-02 2.526890e-02 
-1.827021e-02 2.872342e-02 3.747020e-02 
-3.196890e-02 9.459181e-03 3.679580e-02 
-1.323338e-02 3.115273e-02 3.381520e-02 
-3.014877e-02 1.499928e-02 3.704960e-02 
-3.647252e-02 -1.219613e-02 2.698400e-02 
-7.737859e-03 3.321673e-02 2.963040e-02 
-2.754631e-02 1.973692e-02 3.633010e-02 
-3.501493e-02 -6.129626e-03 2.775610e-02 
-3.253341e-03 3.482059e-02 2.589510e-02 
-2.518767e-02 2.322691e-02 3.511430e-02 
1.272046e-03 3.643908e-02 2.212590e-02 
-2.202722e-02 2.594312e-02 3.291620e-02 
-3.419569e-02 5.009478e-03 3.026360e-02 
3.244938e-03 3.748581e-02 1.983880e-02 
-2.013922e-02 2.694904e-02 3.069120e-02 
-3.350863e-02 7.191559e-03 2.951360e-02 
5.226835e-03 3.853735e-02 1.754140e-02 
-1.824272e-02 2.795948e-02 2.845610e-02 
-3.163940e-02 8.158930e-03 2.727250e-02 
6.560677e-03 3.871406e-02 1.522470e-02 
-1.738994e-02 2.850021e-02 2.670130e-02 
-3.199114e-02 9.885864e-03 2.701050e-02 
6.378253e-03 3.879053e-02 1.392500e-02 
-1.758723e-02 2.856767e-02 2.543280e-02 
-3.180458e-02 9.534605e-03 2.524370e-02 
3.590641e-03 3.827662e-02 1.415930e-02 
-1.948306e-02 2.729573e-02 2.464620e-02 
-3.251670e-02 7.041836e-03 2.295160e-02 
-9.240240e-04 3.639927e-02 1.489050e-02 
-2.307302e-02 2.468714e-02 2.434300e-02 
-3.294636e-02 1.146682e-03 1.860270e-02 
-6.071625e-03 3.365546e-02 1.560960e-02 
-2.610654e-02 2.002897e-02 2.252780e-02 
-1.520880e-02 3.027023e-02 1.884680e-02 
-3.029799e-02 1.194708e-02 1.967030e-02 
-4.724243e-03 3.516210e-02 1.252420e-02 
-2.481868e-02 2.148880e-02 1.949060e-02 
-1.902044e-02 2.771280e-02 1.726510e-02 
-3.172407e-02 6.942265e-03 1.503310e-02 
-1.628301e-02 2.794661e-02 1.395260e-02 
-3.062986e-02 8.740075e-03 1.376170e-02 
-1.819605e-02 2.666303e-02 1.315880e-02 
-3.174550e-02 6.634669e-03 1.193840e-02 
-2.532626e-02 1.839535e-02 1.229550e-02 
-2.161591e-02 2.369802e-02 1.105570e-02 
4.261734e-02 -2.439683e-02 9.407610e-02 
4.130625e-02 -2.458187e-02 9.329210e-02 
3.999516e-02 -2.476692e-02 9.250820e-02 
4.101883e-02 -2.446302e-02 9.083320e-02 
2.239980e-02 -4.111869e-02 9.108820e-02 
3.494283e-02 -2.912747e-02 8.999590e-02 
1.077974e-02 -4.337656e-02 9.429210e-02 
3.643319e-02 -2.582402e-02 8.970120e-02 
1.934091e-02 -4.275007e-02 8.905460e-02 
4.343019e-02 -1.904689e-02 8.854710e-02 
2.706030e-02 -3.700389e-02 8.698300e-02 
3.988114e-03 -4.516741e-02 9.404600e-02 
3.492019e-02 -2.770556e-02 8.675940e-02 
1.635815e-02 -4.260528e-02 8.794130e-02 
4.405636e-02 -1.296658e-02 8.885410e-02 
2.956931e-02 -3.339554e-02 8.500110e-02 
7.489813e-03 -4.314240e-02 9.074090e-02 
4.183044e-02 -1.910498e-02 8.529100e-02 
2.506728e-02 -3.657662e-02 8.417870e-02 
2.001856e-03 -4.475156e-02 9.128070e-02 
3.929990e-02 -2.128593e-02 8.402660e-02 
2.215773e-02 -3.826010e-02 8.337370e-02 
-1.891706e-03 -4.487719e-02 9.183530e-02 
3.873267e-02 -2.247425e-02 8.231500e-02 
2.120202e-02 -3.896022e-02 8.212330e-02 
-3.527723e-03 -4.454928e-02 9.150810e-02 
3.858629e-02 -2.241288e-02 8.107160e-02 
2.068076e-02 -3.839688e-02 8.134390e-02 
-4.040736e-03 -4.399482e-02 9.074090e-02 
3.965952e-02 -2.034922e-02 8.030900e-02 
2.247847e-02 -3.736163e-02 7.965170e-02 
-2.647048e-03 -4.247449e-02 8.954060e-02 
4.253306e-02 -8.121113e-03 8.422660e-02 
3.024631e-02 -3.157219e-02 7.754750e-02 
8.409577e-03 -4.189507e-02 8.292720e-02 
4.427954e-02 7.025813e-03 9.034590e-02 
3.697181e-02 -2.247641e-02 7.778910e-02 
1.904013e-02 -3.848470e-02 7.806430e-02 
-7.033657e-03 -4.205135e-02 8.933180e-02 
4.220660e-02 -9.702275e-03 8.082570e-02 
2.987872e-02 -3.324244e-02 7.408960e-02 
7.278348e-03 -4.254900e-02 8.044380e-02 
4.140432e-02 1.047424e-02 9.105590e-02 
3.705079e-02 -2.285777e-02 7.481710e-02 
1.871668e-02 -3.838629e-02 7.556530e-02 
-8.391458e-03 -4.043718e-02 8.825040e-02 
4.138105e-02 -1.609253e-05 8.391670e-02 
3.396261e-02 -2.986890e-02 7.113940e-02 
1.268567e-02 -4.129521e-02 7.567000e-02 
-1.654075e-02 -3.974553e-02 9.146440e-02 
4.173433e-02 -1.122329e-02 7.615780e-02 
2.898230e-02 -3.435387e-02 6.982310e-02 
4.579058e-03 -4.109761e-02 7.856980e-02 
3.818170e-02 1.938722e-02 9.368360e-02 
3.901227e-02 -2.040998e-02 7.107300e-02 
2.209022e-02 -3.804484e-02 6.992860e-02 
-5.905174e-03 -3.909724e-02 8.371140e-02 
4.236799e-02 -5.143614e-03 7.650370e-02 
3.152185e-02 -3.070187e-02 6.780500e-02 
1.023104e-02 -4.213929e-02 7.236810e-02 
3.789670e-02 1.956828e-02 9.128550e-02 
3.867044e-02 -2.205090e-02 6.758450e-02 
2.096434e-02 -3.870185e-02 6.739090e-02 
-8.052757e-03 -3.821863e-02 8.262240e-02 
4.187179e-02 -1.368222e-02 6.924740e-02 
2.718133e-02 -3.438369e-02 6.522280e-02 
2.401799e-03 -4.062755e-02 7.452390e-02 
4.307211e-02 -6.388708e-03 7.135270e-02 
3.106069e-02 -3.053469e-02 6.399500e-02 
1.007960e-02 -4.251987e-02 6.812130e-02 
3.250485e-02 1.756943e-02 8.897070e-02 
3.413832e-02 -2.743975e-02 6.275640e-02 
1.419611e-02 -4.101469e-02 6.545700e-02 
3.175073e-02 2.184889e-02 9.044990e-02 
3.479487e-02 -2.662097e-02 6.148930e-02 
1.483434e-02 -4.021023e-02 6.419800e-02 
2.828124e-02 2.275426e-02 9.144480e-02 
3.340165e-02 -2.859845e-02 5.970620e-02 
1.269827e-02 -4.115501e-02 6.339310e-02 
4.436469e-02 -1.031152e-02 6.295780e-02 
3.000702e-02 -3.158944e-02 5.838960e-02 
7.887407e-03 -4.204694e-02 6.401590e-02 
4.091155e-02 -1.679735e-02 5.969230e-02 
2.424414e-02 -3.506901e-02 5.803340e-02 
-1.962064e-03 -3.926527e-02 6.937260e-02 
3.743160e-02 -2.333348e-02 5.640160e-02 
1.812524e-02 -3.802126e-02 5.816660e-02 
1.978316e-02 2.812907e-02 9.367340e-02 
3.273188e-02 -3.016732e-02 5.357180e-02 
1.050161e-02 -4.067812e-02 5.926460e-02 
4.004305e-02 -1.786552e-02 5.535160e-02 
2.369250e-02 -3.671942e-02 5.318250e-02 
2.252989e-02 3.119307e-02 9.134190e-02 
3.323825e-02 -2.928762e-02 5.099500e-02 
1.061086e-02 -3.930128e-02 5.720860e-02 
4.137062e-02 -1.620694e-02 5.279610e-02 
2.574487e-02 -3.613233e-02 4.961870e-02 
-2.395784e-03 -3.775752e-02 6.358820e-02 
3.543163e-02 -2.507027e-02 4.943640e-02 
1.531327e-02 -3.877213e-02 5.222200e-02 
1.186388e-02 3.104611e-02 9.295790e-02 
2.705833e-02 -3.449185e-02 4.703830e-02 
1.915132e-02 3.510903e-02 9.010620e-02 
3.311497e-02 -2.596685e-02 4.732370e-02 
1.335410e-02 -4.020041e-02 4.962430e-02 
4.035140e-02 -1.721163e-02 4.711650e-02 
2.391234e-02 -3.616670e-02 4.490990e-02 
1.510935e-02 3.332137e-02 8.858330e-02 
2.784084e-02 -3.226798e-02 4.364980e-02 
3.411346e-03 -3.967261e-02 5.243020e-02 
1.892786e-04 3.230480e-02 9.467380e-02 
1.838709e-02 -3.832697e-02 4.377110e-02 
1.818913e-02 3.595065e-02 8.580720e-02 
2.708021e-02 -3.345267e-02 4.051630e-02 
-3.325283e-02 -7.874818e-03 8.790100e-02 
3.105519e-03 3.332213e-02 9.107070e-02 
1.961306e-02 -3.851255e-02 4.015210e-02 
1.822324e-02 3.571466e-02 8.298550e-02 
-5.803810e-03 2.965419e-02 9.241580e-02 
-3.364220e-02 -3.975678e-03 8.774380e-02 
5.284788e-03 3.363387e-02 8.743320e-02 
1.680180e-02 3.563741e-02 8.103560e-02 
-7.541199e-03 3.001060e-02 9.093510e-02 
-2.922669e-02 1.109177e-02 9.156600e-02 
1.775617e-02 3.601944e-02 7.940160e-02 
-7.280871e-03 3.125053e-02 9.020710e-02 
-2.599311e-02 1.879016e-02 9.303350e-02 
-3.558692e-02 -7.306736e-03 8.285340e-02 
-1.631320e-03 3.386116e-02 8.735150e-02 
-2.168048e-02 2.310610e-02 9.192180e-02 
-3.335150e-02 3.070527e-04 8.480240e-02 
5.056295e-03 3.518317e-02 8.315550e-02 
-1.673528e-02 2.655344e-02 8.994790e-02 
-3.204792e-02 9.213094e-03 8.803800e-02 
1.207854e-02 3.448218e-02 7.755940e-02 
-1.283836e-02 2.974436e-02 8.839020e-02 
-2.969010e-02 1.463077e-02 8.864180e-02 
1.782304e-02 3.554451e-02 7.369260e-02 
-8.609988e-03 3.250967e-02 8.639330e-02 
-2.673047e-02 1.913979e-02 8.838010e-02 
-3.727629e-02 -5.620944e-03 7.942960e-02 
-3.388000e-03 3.398142e-02 8.307260e-02 
-2.315747e-02 2.276149e-02 8.725360e-02 
-3.487970e-02 -1.078151e-04 8.005920e-02 
1.879521e-03 3.546606e-02 7.972280e-02 
-1.926711e-02 2.594939e-02 8.569090e-02 
-3.310329e-02 6.295536e-03 8.156870e-02 
7.439204e-03 3.492783e-02 7.498800e-02 
-1.580386e-02 2.799906e-02 8.367840e-02 
-3.148551e-02 1.104002e-02 8.218180e-02 
1.016570e-02 3.470652e-02 7.199470e-02 
-1.383743e-02 2.863583e-02 8.164070e-02 
-3.046807e-02 1.299617e-02 8.145890e-02 
9.663221e-03 3.524958e-02 7.124340e-02 
-1.401431e-02 2.873100e-02 8.046070e-02 
-3.065701e-02 1.308005e-02 8.027870e-02 
9.500786e-03 3.535113e-02 7.003660e-02 
-1.387322e-02 2.838610e-02 7.883650e-02 
-3.084624e-02 1.316408e-02 7.909690e-02 
1.079036e-02 3.529189e-02 6.792120e-02 
-1.329236e-02 2.919423e-02 7.766020e-02 
-3.027805e-02 1.396053e-02 7.792150e-02 
1.242964e-02 3.478814e-02 6.533540e-02 
-1.239068e-02 2.956326e-02 7.603680e-02 
-3.001603e-02 1.520854e-02 7.718880e-02 
1.970672e-02 3.569960e-02 6.044370e-02 
-7.360403e-03 3.306984e-02 7.400230e-02 
-2.596611e-02 2.001875e-02 7.649750e-02 
-3.536455e-02 -6.838964e-03 6.545700e-02 
-3.257401e-04 3.395595e-02 6.924310e-02 
-2.160330e-02 2.438555e-02 7.536090e-02 
-3.433266e-02 2.728352e-03 6.932920e-02 
7.573301e-03 3.557884e-02 6.442920e-02 
-1.615834e-02 2.903156e-02 7.378390e-02 
-3.224991e-02 1.241769e-02 7.270500e-02 
1.697439e-02 3.543929e-02 5.767370e-02 
-1.037542e-02 3.325258e-02 7.175290e-02 
-2.773442e-02 1.840977e-02 7.246840e-02 
-3.471534e-02 -1.239399e-02 5.758280e-02 
-4.783715e-03 3.430158e-02 6.788170e-02 
-2.443252e-02 2.251948e-02 7.176680e-02 
-3.414157e-02 -3.899820e-03 6.107470e-02 
9.691122e-05 3.463838e-02 6.396220e-02 
-2.126243e-02 2.502625e-02 7.015610e-02 
-3.279939e-02 1.429819e-03 6.220810e-02 
6.140196e-03 3.526125e-02 5.954500e-02 
-1.763861e-02 2.869973e-02 6.900160e-02 
-3.193534e-02 9.293200e-03 6.517900e-02 
1.260213e-02 3.544447e-02 5.460240e-02 
-1.336830e-02 3.149709e-02 6.693750e-02 
-2.922812e-02 1.434718e-02 6.538660e-02 
1.730918e-02 3.624251e-02 5.102110e-02 
-9.194151e-03 3.270432e-02 6.394030e-02 
-2.729255e-02 1.866828e-02 6.558520e-02 
-3.586050e-02 -9.874281e-03 5.283900e-02 
-3.559333e-03 3.375751e-02 6.000320e-02 
-2.365986e-02 2.235051e-02 6.442320e-02 
-3.465853e-02 -2.329670e-03 5.542860e-02 
1.360071e-03 3.409382e-02 5.601680e-02 
-2.078675e-02 2.531900e-02 6.325100e-02 
-3.362100e-02 3.478757e-03 5.704960e-02 
4.191363e-03 3.548998e-02 5.387310e-02 
-1.835632e-02 2.712614e-02 6.160890e-02 
-3.274145e-02 7.595833e-03 5.772020e-02 
5.139739e-03 3.587691e-02 5.217690e-02 
-1.745281e-02 2.749592e-02 5.994520e-02 
-3.278492e-02 9.327010e-03 5.744110e-02 
6.868834e-03 3.699648e-02 5.048410e-02 
-1.577852e-02 2.858921e-02 5.828510e-02 
-3.205901e-02 1.177910e-02 5.717070e-02 
1.076532e-02 3.706608e-02 4.687860e-02 
-1.332995e-02 3.040909e-02 5.662850e-02 
-3.025430e-02 1.449323e-02 5.644340e-02 
1.060094e-02 3.717069e-02 4.563290e-02 
-1.350962e-02 3.050728e-02 5.540920e-02 
-3.075752e-02 1.503710e-02 5.569100e-02 
1.043624e-02 3.727556e-02 4.438530e-02 
-1.368949e-02 3.060555e-02 5.418800e-02 
-3.095004e-02 1.512399e-02 5.447100e-02 
1.061880e-02 3.693164e-02 4.265100e-02 
-1.354527e-02 3.025701e-02 5.249510e-02 
-3.083143e-02 1.475291e-02 5.277970e-02 
1.080194e-02 3.658665e-02 4.091160e-02 
-1.372557e-02 3.035531e-02 5.126920e-02 
-3.071250e-02 1.438080e-02 5.108350e-02 
1.098561e-02 3.624067e-02 3.916690e-02 
-1.358118e-02 3.000574e-02 4.956830e-02 
-3.059321e-02 1.400756e-02 4.938230e-02 
1.082044e-02 3.634526e-02 3.790780e-02 
-1.343634e-02 2.965511e-02 4.786230e-02 
-3.047354e-02 1.363319e-02 4.767600e-02 
1.407251e-02 3.731805e-02 3.519390e-02 
-1.096432e-02 3.149141e-02 4.617660e-02 
-2.897116e-02 1.682428e-02 4.741980e-02 
-6.599725e-03 3.434699e-02 4.402320e-02 
-2.529140e-02 2.055436e-02 4.622870e-02 
-3.489022e-02 -6.901373e-03 3.439050e-02 
6.956403e-04 3.689407e-02 3.994010e-02 
-1.973467e-02 2.529455e-02 4.457450e-02 
-3.431060e-02 5.505576e-03 4.053480e-02 
1.050704e-02 3.631270e-02 3.235650e-02 
-1.448752e-02 3.049895e-02 4.339570e-02 
-3.093559e-02 1.351675e-02 4.224760e-02 
2.132617e-02 3.646948e-02 2.461940e-02 
-7.462184e-03 3.510168e-02 4.077710e-02 
-2.554365e-02 2.037193e-02 4.203690e-02 
-3.612283e-02 -5.713327e-03 3.158050e-02 
2.327330e-03 3.614650e-02 3.422600e-02 
-1.951571e-02 2.631138e-02 4.086290e-02 
-3.318044e-02 5.067944e-03 3.532330e-02 
1.264826e-02 3.675582e-02 2.705310e-02 
-1.315127e-02 3.180987e-02 3.920310e-02 
-2.964644e-02 1.477902e-02 3.804530e-02 
2.164575e-02 3.754151e-02 2.075410e-02 
-6.213907e-03 3.479762e-02 3.557850e-02 
-2.533736e-02 2.137931e-02 3.831400e-02 
-3.625277e-02 -4.264613e-03 2.827520e-02 
2.154658e-03 3.600853e-02 2.993790e-02 
-2.007482e-02 2.660015e-02 3.712620e-02 
-3.345950e-02 4.836785e-03 3.104820e-02 
7.569064e-03 3.590986e-02 2.519510e-02 
-1.714326e-02 2.962931e-02 3.591090e-02 
-3.241167e-02 1.070098e-02 3.278380e-02 
1.163096e-02 3.763644e-02 2.243050e-02 
-1.387944e-02 3.221224e-02 3.420470e-02 
-3.010850e-02 1.466609e-02 3.254430e-02 
1.679342e-02 3.800452e-02 1.811210e-02 
-9.610316e-03 3.345035e-02 3.101510e-02 
-2.876128e-02 2.000791e-02 3.377720e-02 
-5.308990e-03 3.469772e-02 2.780150e-02 
-2.583187e-02 2.303671e-02 3.255770e-02 
-3.520296e-02 -5.091061e-03 1.986160e-02 
-1.764861e-03 3.521195e-02 2.455490e-02 
-2.335808e-02 2.487827e-02 3.083540e-02 
-3.461102e-02 -3.460521e-04 2.114490e-02 
6.694097e-04 3.544016e-02 2.178160e-02 
-2.165995e-02 2.598883e-02 2.909920e-02 
-3.354344e-02 1.706608e-03 2.038640e-02 
-6.407173e-04 3.525527e-02 2.099830e-02 
-2.198617e-02 2.443123e-02 2.683480e-02 
-3.390093e-02 7.342732e-05 1.807280e-02 
-3.083905e-03 3.478121e-02 2.071310e-02 
-2.374686e-02 2.304952e-02 2.555120e-02 
-8.115282e-03 3.418671e-02 2.192670e-02 
-2.708233e-02 2.018729e-02 2.424850e-02 
1.064576e-02 3.803867e-02 1.156720e-02 
-1.402873e-02 3.120583e-02 2.211100e-02 
-3.040514e-02 1.349830e-02 2.040820e-02 
1.399933e-04 3.550921e-02 1.484000e-02 
-2.163461e-02 2.509474e-02 2.126280e-02 
-1.215396e-02 3.198004e-02 1.856370e-02 
-2.825383e-02 1.374911e-02 1.633740e-02 
-3.287812e-03 3.438949e-02 1.325740e-02 
-2.373395e-02 2.213482e-02 1.766970e-02 
-1.529364e-03 3.553409e-02 1.146410e-02 
-2.234474e-02 2.371680e-02 1.640510e-02 
-2.503953e-03 3.488980e-02 1.015790e-02 
-2.267570e-02 2.213865e-02 1.408950e-02 
-1.347506e-02 2.951832e-02 1.186750e-02 
4.062117e-02 -3.011063e-02 9.242090e-02 
3.838444e-02 -3.066242e-02 9.162710e-02 
3.586540e-02 -3.065540e-02 9.128760e-02 
4.278612e-02 -2.298350e-02 9.195060e-02 
2.388565e-02 -3.833667e-02 8.994390e-02 
3.048467e-02 -3.235508e-02 8.969250e-02 
9.924411e-03 -4.434887e-02 9.041130e-02 
4.167493e-02 -2.115179e-02 9.085580e-02 
2.360378e-02 -3.818002e-02 8.747620e-02 
1.996772e-04 -4.393441e-02 9.318320e-02 
3.722620e-02 -2.685089e-02 8.775330e-02 
1.771251e-02 -4.112558e-02 8.664640e-02 
-6.625773e-03 -4.459250e-02 9.415560e-02 
3.372803e-02 -2.971349e-02 8.602520e-02 
1.364686e-02 -4.287475e-02 8.583400e-02 
4.716044e-02 -1.116507e-02 9.087820e-02 
3.113339e-02 -3.198573e-02 8.430050e-02 
9.967904e-03 -4.288777e-02 8.594870e-02 
4.465377e-02 -1.117284e-02 9.054200e-02 
2.916790e-02 -3.310157e-02 8.304220e-02 
7.731177e-03 -4.343956e-02 8.515480e-02 
4.333948e-02 -1.112775e-02 8.976330e-02 
2.811498e-02 -3.361906e-02 8.179060e-02 
6.405842e-03 -4.339403e-02 8.436960e-02 
4.230997e-02 -1.162249e-02 8.853190e-02 
2.706047e-02 -3.413736e-02 8.053700e-02 
5.080556e-03 -4.334859e-02 8.358450e-02 
4.251843e-02 -9.852643e-03 8.822320e-02 
2.783832e-02 -3.345455e-02 7.929920e-02 
6.357695e-03 -4.381477e-02 8.143090e-02 
4.424692e-02 -6.366206e-03 8.838470e-02 
3.045262e-02 -3.156772e-02 7.807680e-02 
8.945682e-03 -4.194301e-02 8.021480e-02 
-1.747212e-02 -4.035888e-02 9.186370e-02 
3.250714e-02 -2.855503e-02 7.778910e-02 
1.180265e-02 -4.063695e-02 7.853090e-02 
-1.471017e-02 -3.907592e-02 9.023010e-02 
3.639113e-02 -2.434604e-02 7.751930e-02 
1.677177e-02 -3.869340e-02 7.639080e-02 
-9.162712e-03 -3.884010e-02 8.680190e-02 
4.066396e-02 -1.619153e-02 7.959460e-02 
2.443170e-02 -3.724221e-02 7.284000e-02 
5.321260e-04 -4.249401e-02 7.921250e-02 
4.118965e-02 -1.164087e-03 8.757320e-02 
3.046623e-02 -3.236238e-02 7.211600e-02 
8.333654e-03 -4.163923e-02 7.522710e-02 
-1.933705e-02 -3.727521e-02 8.925730e-02 
3.691273e-02 -2.347551e-02 7.377540e-02 
1.806293e-02 -3.956695e-02 7.121640e-02 
-8.752214e-03 -3.801616e-02 8.313810e-02 
4.095906e-02 -1.252056e-02 7.774580e-02 
2.585299e-02 -3.579059e-02 6.907100e-02 
2.399006e-03 -4.220852e-02 7.456100e-02 
4.012677e-02 7.212412e-03 8.934880e-02 
3.254180e-02 -2.972806e-02 6.883220e-02 
1.142738e-02 -4.131826e-02 7.006890e-02 
-1.691798e-02 -3.583087e-02 8.518870e-02 
3.743688e-02 -2.260120e-02 7.001410e-02 
1.881852e-02 -3.929942e-02 6.695550e-02 
-8.092422e-03 -3.774931e-02 7.899670e-02 
4.052087e-02 -1.446842e-02 7.259580e-02 
2.450232e-02 -3.615320e-02 6.525800e-02 
4.925723e-04 -4.144078e-02 7.174070e-02 
3.574106e-02 1.051629e-02 8.928330e-02 
2.963865e-02 -3.185787e-02 6.452190e-02 
7.408678e-03 -4.118022e-02 6.768810e-02 
-2.201225e-02 -3.293342e-02 8.512960e-02 
3.228057e-02 -2.995082e-02 6.327600e-02 
1.055158e-02 -4.043619e-02 6.549220e-02 
-2.241882e-02 -3.230201e-02 8.436710e-02 
3.399908e-02 -2.864895e-02 6.201910e-02 
1.251489e-02 -3.972078e-02 6.376010e-02 
-1.596391e-02 -3.425236e-02 7.909290e-02 
3.450537e-02 -2.738669e-02 6.123760e-02 
1.328870e-02 -3.903593e-02 6.249770e-02 
-2.617690e-02 -2.947304e-02 8.507960e-02 
3.029512e-02 -3.148025e-02 5.894060e-02 
7.975981e-03 -4.084056e-02 6.214910e-02 
3.928610e-02 -2.014076e-02 6.117630e-02 
2.057537e-02 -3.691805e-02 5.806000e-02 
-5.005683e-03 -3.879666e-02 6.750580e-02 
3.374232e-02 -2.886866e-02 5.641050e-02 
1.163823e-02 -3.883159e-02 5.915100e-02 
2.577029e-02 2.384617e-02 9.281080e-02 
2.578050e-02 -3.542853e-02 5.405770e-02 
1.572311e-03 -4.076462e-02 6.071080e-02 
3.668514e-02 -2.280878e-02 5.634250e-02 
1.761476e-02 -3.908520e-02 5.368600e-02 
-9.746225e-03 -3.696100e-02 6.656570e-02 
3.110365e-02 -3.158744e-02 5.152800e-02 
8.126092e-03 -3.984353e-02 5.577630e-02 
2.527385e-02 2.882729e-02 9.233230e-02 
2.535153e-02 -3.518083e-02 5.018000e-02 
3.142967e-04 -3.881088e-02 5.835090e-02 
1.808449e-02 2.896161e-02 9.414060e-02 
1.959050e-02 -3.877993e-02 4.882990e-02 
-8.416189e-03 -3.552199e-02 6.281680e-02 
3.392796e-02 -2.540777e-02 5.017940e-02 
1.448388e-02 -4.118772e-02 4.798760e-02 
2.408276e-02 3.067707e-02 9.009790e-02 
2.651290e-02 -3.312594e-02 4.680430e-02 
3.251010e-03 -4.081214e-02 5.159020e-02 
3.458974e-02 -2.461450e-02 4.759920e-02 
1.511732e-02 -4.041659e-02 4.539580e-02 
1.537803e-02 3.133564e-02 9.159980e-02 
1.993620e-02 -3.784341e-02 4.363190e-02 
2.000971e-02 3.129897e-02 8.827660e-02 
2.072789e-02 -3.714627e-02 4.233400e-02 
2.188092e-02 3.208036e-02 8.667100e-02 
1.709410e-02 -4.011488e-02 4.048050e-02 
2.148356e-02 3.269746e-02 8.592570e-02 
-2.142368e-03 2.895615e-02 9.356480e-02 
-3.363896e-02 -7.938953e-04 8.716610e-02 
5.975145e-03 3.320828e-02 9.161200e-02 
1.247334e-02 -4.125489e-02 3.884050e-02 
2.120952e-02 3.295147e-02 8.355120e-02 
-2.926771e-03 3.017436e-02 9.209340e-02 
-3.377860e-02 1.519870e-03 8.612680e-02 
7.167204e-03 3.508032e-02 8.972130e-02 
-1.397589e-02 2.699782e-02 9.341250e-02 
-3.287130e-02 4.295481e-03 8.627730e-02 
9.752925e-03 3.440616e-02 8.682470e-02 
